# This PCD file was generated using the MATLAB® pcwrite function
# from Computer Vision System Toolbox®.
# .PCD v.7 - Point Cloud Data file format
VERSION .7
FIELDS x y z intensity
SIZE 4 4 4 4
TYPE F F F F
COUNT 1 1 1 1
WIDTH 1278
HEIGHT 1
VIEWPOINT 0 0 0 1 0 0 0
POINTS 1278
DATA ascii
1.110179 -2.730187 -0.704524 2.088835
1.099088 -2.730453 -0.703629 2.088891
1.092321 -2.741541 -0.705445 2.088947
1.078365 -2.734482 -0.702742 2.089002
1.064247 -2.725356 -0.699588 2.089055
1.054623 -2.729079 -0.699596 2.089111
1.047761 -2.740051 -0.701411 2.089166
1.038773 -2.745539 -0.701872 2.089222
1.025190 -2.740226 -0.699621 2.089280
1.013299 -2.736323 -0.697822 2.089333
1.003637 -2.739868 -0.697830 2.089388
0.994624 -2.745212 -0.698290 2.089444
0.986242 -2.752361 -0.699201 2.089500
0.975875 -2.753975 -0.698758 2.089555
0.960368 -2.740835 -0.694699 2.089611
0.948782 -2.738671 -0.693351 2.089666
0.944202 -2.755503 -0.695980 2.089722
0.933852 -2.756959 -0.695536 2.089777
0.924121 -2.760227 -0.695543 2.089833
0.910103 -2.750509 -0.692388 2.089889
0.899791 -2.751840 -0.691944 2.089944
0.892469 -2.762406 -0.693759 2.090000
0.883310 -2.767385 -0.694218 2.090055
0.870619 -2.761182 -0.691966 2.090111
0.859139 -2.758647 -0.690618 2.090167
0.850462 -2.763366 -0.691077 2.090219
0.839577 -2.762613 -0.690181 2.090275
0.831994 -2.771004 -0.691543 2.090328
0.821788 -2.776073 -0.692002 2.090389
0.809750 -2.769454 -0.689750 2.090441
0.799437 -2.770415 -0.689305 2.090497
0.789127 -2.771339 -0.688861 2.090553
0.779873 -2.775977 -0.689320 2.090608
0.770077 -2.778706 -0.689327 2.090664
0.758730 -2.775763 -0.687978 2.090719
0.749442 -2.780299 -0.688437 2.090775
0.739630 -2.782922 -0.688443 2.090831
0.728822 -2.781741 -0.687547 2.090886
0.717545 -2.778633 -0.686198 2.090942
0.705337 -2.771704 -0.683945 2.090997
0.697452 -2.781733 -0.685759 2.091053
0.688103 -2.786065 -0.686218 2.091108
0.678733 -2.790367 -0.686676 2.091164
0.668924 -2.790731 -0.686231 2.091217
0.657329 -2.783476 -0.683978 2.091269
0.647458 -2.787789 -0.684436 2.091328
0.637128 -2.790169 -0.684443 2.091386
0.628632 -2.796091 -0.685353 2.091439
0.617995 -2.792476 -0.684003 2.091492
0.607727 -2.792737 -0.683558 2.091547
0.596972 -2.793065 -0.683113 2.091606
0.587518 -2.797063 -0.683571 2.091661
0.578438 -2.802936 -0.684481 2.091717
0.568655 -2.802952 -0.684035 2.091770
0.558003 -2.801123 -0.683137 2.091825
0.546620 -2.795431 -0.681336 2.091881
0.537862 -2.803085 -0.682698 2.091936
0.527972 -2.804969 -0.682704 2.091992
0.518786 -2.810650 -0.683614 2.092047
0.506578 -2.797043 -0.680004 2.092100
0.498419 -2.808409 -0.682269 2.092156
0.488176 -2.808236 -0.681823 2.092211
0.477445 -2.808111 -0.681377 2.092270
0.468630 -2.814552 -0.682227 2.092325
0.457130 -2.806581 -0.679973 2.092381
0.446616 -2.804335 -0.679075 2.092437
0.437135 -2.811753 -0.680437 2.092495
0.429188 -2.822838 -0.682702 2.092548
0.419444 -2.822342 -0.682255 2.092601
0.408083 -2.814173 -0.680001 2.092656
0.396564 -2.807959 -0.678200 2.092714
0.387425 -2.811211 -0.678657 2.092767
0.379341 -2.826085 -0.681826 2.092823
0.368866 -2.823552 -0.680928 2.092878
0.357422 -2.817179 -0.679126 2.092937
0.347005 -2.814566 -0.678227 2.092992
0.337081 -2.815784 -0.678232 2.093048
0.328559 -2.824649 -0.680045 2.093101
0.318156 -2.821930 -0.679147 2.093156
0.307349 -2.815301 -0.677344 2.093212
0.296925 -2.816434 -0.677350 2.093270
0.288293 -2.825177 -0.679162 2.093323
0.278719 -2.830067 -0.680071 2.093379
0.268366 -2.827167 -0.679173 2.093434
0.257496 -2.818411 -0.676918 2.093490
0.248229 -2.821212 -0.677375 2.093542
0.238615 -2.825967 -0.678284 2.093598
0.228811 -2.828748 -0.678740 2.093653
0.218645 -2.833476 -0.679650 2.093712
0.207923 -2.824533 -0.677395 2.093767
0.197964 -2.825264 -0.677399 2.093823
0.188500 -2.825928 -0.677404 2.093876
0.178916 -2.832424 -0.678765 2.093931
0.169169 -2.836944 -0.679673 2.093987
0.157879 -2.823955 -0.676514 2.094045
0.148662 -2.838130 -0.679683 2.094101
0.138359 -2.832818 -0.678332 2.094157
0.128648 -2.839145 -0.679692 2.094212
0.118297 -2.831815 -0.677889 2.094268
0.107999 -2.824448 -0.676085 2.094323
0.098755 -2.830653 -0.677446 2.094376
0.088775 -2.831004 -0.677450 2.094432
0.079087 -2.841057 -0.679715 2.094487
0.068916 -2.835496 -0.678363 2.094543
0.058875 -2.833796 -0.677915 2.094598
0.048999 -2.839851 -0.679276 2.094654
0.038924 -2.836132 -0.678376 2.094709
0.028926 -2.836274 -0.678380 2.094765
0.018927 -2.836381 -0.678384 2.094820
0.009571 -2.833352 -0.676824 2.094876
-0.000406 -2.837287 -0.677732 2.094932
-0.009905 -2.837292 -0.677736 2.094985
-0.019922 -2.841160 -0.678643 2.095040
-0.029404 -2.837204 -0.677743 2.095093
-0.039359 -2.833210 -0.676844 2.095148
-0.049902 -2.836967 -0.677751 2.095207
-0.060473 -2.840685 -0.678659 2.095265
-0.070484 -2.840479 -0.678663 2.095321
-0.080594 -2.844134 -0.679570 2.095376
-0.089890 -2.836083 -0.677766 2.095429
-0.099885 -2.835774 -0.677770 2.095484
-0.110089 -2.841272 -0.679129 2.095540
-0.120332 -2.846734 -0.680489 2.095596
-0.130280 -2.844373 -0.680040 2.095651
-0.139851 -2.834193 -0.677784 2.095707
-0.151084 -2.868761 -0.685922 2.095760
-0.161607 -2.876021 -0.687733 2.095815
-0.170857 -2.859900 -0.684121 2.095871
-0.180348 -2.849586 -0.681865 2.095926
-0.190265 -2.847018 -0.681416 2.095982
-0.200537 -2.842437 -0.680516 2.096040
-0.209777 -2.837892 -0.679616 2.096093
-0.221222 -2.856594 -0.684138 2.096149
-0.230683 -2.848058 -0.682333 2.096204
-0.240745 -2.841392 -0.680981 2.096263
-0.249268 -2.828952 -0.678273 2.096315
-0.260622 -2.849479 -0.683247 2.096368
-0.271164 -2.848529 -0.683250 2.096426
-0.282074 -2.851418 -0.684157 2.096485
-0.290468 -2.838857 -0.681448 2.096538
-0.299971 -2.837900 -0.681451 2.096591
-0.311498 -2.846492 -0.683714 2.096649
-0.323091 -2.855038 -0.685976 2.096707
-0.331334 -2.842358 -0.683268 2.096760
-0.340898 -2.837336 -0.682367 2.096816
-0.351789 -2.847818 -0.685081 2.096868
-0.361345 -2.842729 -0.684180 2.096924
-0.371351 -2.845402 -0.685086 2.096977
-0.382379 -2.843980 -0.685089 2.097038
-0.391103 -2.832996 -0.682832 2.097093
-0.401883 -2.837427 -0.684191 2.097149
-0.412471 -2.843816 -0.686001 2.097202
-0.423050 -2.846238 -0.686907 2.097257
-0.432670 -2.845335 -0.686462 2.097313
-0.442022 -2.836049 -0.684658 2.097371
-0.450915 -2.830739 -0.683756 2.097424
-0.462834 -2.844643 -0.687373 2.097477
-0.473167 -2.844955 -0.687827 2.097533
-0.484009 -2.845147 -0.688281 2.097591
-0.492227 -2.835864 -0.686476 2.097644
-0.502882 -2.837991 -0.687382 2.097699
-0.514236 -2.843915 -0.689191 2.097755
-0.524755 -2.842034 -0.689194 2.097813
-0.535471 -2.844039 -0.690099 2.097869
-0.544411 -2.836431 -0.688746 2.097924
-0.554036 -2.832623 -0.688296 2.097980
-0.565505 -2.838343 -0.690106 2.098035
-0.576263 -2.840196 -0.691011 2.098091
-0.585108 -2.832460 -0.689658 2.098146
-0.595372 -2.834342 -0.690563 2.098199
-0.605756 -2.834177 -0.691017 2.098255
-0.616863 -2.839796 -0.692826 2.098308
-0.627365 -2.837539 -0.692828 2.098366
-0.639037 -2.842965 -0.694637 2.098422
-0.646495 -2.829332 -0.691928 2.098477
-0.654730 -2.819482 -0.690122 2.098533
-0.669494 -2.838081 -0.695094 2.098588
-0.680827 -2.841440 -0.696451 2.098644
-0.690836 -2.839068 -0.696453 2.098699
-0.698501 -2.829209 -0.694647 2.098752
-0.709862 -2.832451 -0.696004 2.098808
-0.718895 -2.826198 -0.695102 2.098863
-0.730783 -2.829233 -0.696459 2.098922
-0.740749 -2.826688 -0.696460 2.098977
-0.751689 -2.827877 -0.697365 2.099033
-0.760653 -2.823507 -0.696915 2.099086
-0.773627 -2.832147 -0.699627 2.099141
-0.782579 -2.825692 -0.698725 2.099197
-0.794604 -2.830478 -0.700534 2.099252
-0.802475 -2.820204 -0.698727 2.099308
-0.814002 -2.823032 -0.700084 2.099363
-0.823945 -2.820196 -0.700085 2.099419
-0.834919 -2.819051 -0.700538 2.099477
-0.812961 -2.709764 -0.674784 2.099530
-0.782945 -2.574382 -0.642705 2.099586
-0.806216 -2.620284 -0.654453 2.099638
-0.873508 -2.805495 -0.700091 2.099697
-0.890333 -2.827577 -0.705205 2.099752
-0.898540 -2.818897 -0.703852 2.099808
-0.911412 -2.825050 -0.706111 2.099864
-0.918975 -2.814453 -0.704306 2.099919
-0.930798 -2.818822 -0.706114 2.099972
-0.942549 -2.821131 -0.707470 2.100028
-0.955557 -2.827089 -0.709729 2.100083
-0.961033 -2.808818 -0.706117 2.100142
-0.974064 -2.814690 -0.708376 2.100197
-0.985243 -2.814979 -0.709281 2.100253
-0.999145 -2.824596 -0.712443 2.100305
-1.007148 -2.815600 -0.711089 2.100361
-1.015753 -2.808418 -0.710187 2.100416
-1.028942 -2.814043 -0.712446 2.100472
-1.038183 -2.808625 -0.711995 2.100528
-1.053454 -2.819633 -0.715609 2.100583
-1.061343 -2.810483 -0.714255 2.100639
-1.068496 -2.799487 -0.712449 2.100694
-1.084776 -2.814164 -0.716966 2.100747
-1.096080 -2.814020 -0.717870 2.100803
-1.108100 -2.815649 -0.719225 2.100858
-1.116591 -2.808157 -0.718323 2.100914
-1.124326 -2.798829 -0.716969 2.100970
-1.603611 -4.688038 0.235122 3.000005
-1.625919 -4.699492 0.236003 3.000061
-1.643792 -4.697625 0.236153 3.000117
-1.662979 -4.699463 0.236512 3.000172
-1.681540 -4.699341 0.236766 3.000228
-1.700118 -4.699146 0.237021 3.000283
-1.720219 -4.700463 0.237376 3.000342
-1.742247 -4.709507 0.238151 3.000397
-1.760234 -4.707205 0.238301 3.000453
-1.774061 -4.693598 0.237826 3.000509
-1.078888 -2.787095 0.132011 3.000564
-1.088086 -2.781499 0.131872 3.000620
-1.103897 -2.794719 0.132775 3.000672
-1.167089 -2.928774 0.140438 3.000728
-1.200728 -2.984276 0.143729 3.000783
-1.223777 -3.011709 0.145459 3.000839
-1.236683 -3.013041 0.145733 3.000895
-1.258560 -3.036555 0.147254 3.000950
-1.271592 -3.037750 0.147527 3.001006
-1.284646 -3.038891 0.147800 3.001061
-1.301549 -3.049204 0.148593 3.001117
-1.317768 -3.057594 0.149281 3.001173
-1.334839 -3.067748 0.150072 3.001228
-1.348075 -3.068636 0.150345 3.001284
-1.269392 -2.828512 0.137195 3.001395
-1.284262 -2.835090 0.137781 3.001450
-1.297572 -2.837949 0.138160 3.001506
-1.310414 -2.840976 0.138540 3.001559
-1.316713 -2.829386 0.138091 3.001611
-1.330078 -2.832098 0.138469 3.001667
-1.343981 -2.834520 0.138845 3.001725
-1.360444 -2.842313 0.139532 3.001784
-1.373084 -2.843027 0.139806 3.001839
-1.378408 -2.829484 0.139254 3.001892
-1.397061 -2.842736 0.140253 3.001948
-1.410119 -2.845340 0.140632 3.002001
-1.421098 -2.842252 0.140698 3.002056
-1.433829 -2.842711 0.140972 3.002112
-1.423690 -2.772360 0.137937 3.002226
-1.424563 -2.749586 0.136865 3.002281
-1.426617 -2.730649 0.136003 3.002334
-1.432198 -2.718843 0.135555 3.002387
-1.438200 -2.706780 0.135105 3.002442
-1.445976 -2.698255 0.134863 3.002498
-1.443049 -2.668236 0.133378 3.002556
-1.446929 -2.652647 0.132722 3.002612
-1.443191 -2.622967 0.131239 3.002667
-1.429338 -2.576007 0.128725 3.002720
-1.430881 -2.557012 0.127865 3.002776
-1.432309 -2.538040 0.127004 3.002831
-1.437482 -2.526084 0.126557 3.002887
-1.441093 -2.510384 0.125903 3.002945
-1.448073 -2.501910 0.125663 3.003001
-1.460466 -2.504100 0.126044 3.003054
-1.473336 -2.505983 0.126424 3.003109
-1.488227 -2.511269 0.127010 3.003165
-1.491158 -2.495745 0.126358 3.003220
-1.504070 -2.497478 0.126737 3.003276
-1.514987 -2.495710 0.126910 3.003331
-1.534063 -2.507638 0.127908 3.003387
-1.540937 -2.498895 0.127668 3.003443
-1.564269 -2.517503 0.129078 3.003498
-1.575303 -2.515495 0.129250 3.003554
-1.585894 -2.513716 0.129424 3.003607
-1.596937 -2.511620 0.129597 3.003662
-1.614314 -2.519654 0.130387 3.003718
-1.623280 -2.514059 0.130353 3.003773
-1.632227 -2.508431 0.130319 3.003829
-1.651879 -2.519624 0.131314 3.003884
-1.673785 -2.534072 0.132515 3.003940
-1.676744 -2.517914 0.131862 3.003998
-1.694427 -2.525489 0.132651 3.004054
-1.699029 -2.512935 0.132205 3.004109
-1.712380 -2.513707 0.132582 3.004165
-1.725755 -2.514418 0.132959 3.004220
-1.750294 -2.531646 0.134364 3.004276
-1.756613 -2.522572 0.134125 3.004329
-1.765589 -2.516480 0.134091 3.004385
-1.767759 -2.500477 0.133440 3.004440
-1.788021 -2.510772 0.134433 3.004496
-1.812945 -2.527510 0.135836 3.004551
-1.815051 -2.511414 0.135185 3.004607
-1.819374 -2.498595 0.134740 3.004662
-1.843334 -2.513430 0.136040 3.004718
-1.856489 -2.513847 0.136417 3.004771
-1.876571 -2.524471 0.138119 3.004826
-2.339370 -3.141224 0.177743 3.004882
-2.342230 -3.121819 0.176980 3.004937
-2.349731 -3.108859 0.176629 3.004993
-2.360747 -3.100693 0.176587 3.005049
-2.370537 -3.090889 0.176441 3.005104
-2.377880 -3.077868 0.176091 3.005160
-2.377237 -3.053295 0.175020 3.005218
-2.384413 -3.040277 0.174670 3.005274
-2.397093 -3.035567 0.174835 3.005327
-2.402950 -3.020927 0.174382 3.005382
-2.408734 -3.006285 0.173930 3.005438
-3.330678 -4.123433 0.248145 3.005549
-3.342735 -4.108716 0.247882 3.005604
-3.364755 -4.106411 0.248440 3.005660
-2.418937 -2.911322 0.170239 3.005715
-2.430528 -2.904460 0.170300 3.005771
-2.456063 -2.914519 0.171488 3.005827
-3.381686 -4.010042 0.244935 3.005882
-3.403523 -4.007467 0.245493 3.005938
-3.408671 -3.984918 0.244720 3.005993
-3.413705 -3.962379 0.243948 3.006049
-3.425101 -3.947453 0.243688 3.006104
-3.440341 -3.937044 0.243734 3.006160
-3.449014 -3.919024 0.243269 3.006216
-3.460228 -3.904004 0.243009 3.006271
-3.457522 -3.874539 0.241730 3.006324
-3.462590 -3.854120 0.241065 3.006377
-3.476202 -3.842065 0.241010 3.006432
-3.489770 -3.829963 0.240955 3.006488
-3.499285 -3.813362 0.240594 3.006543
-3.504698 -3.792307 0.239927 3.006599
-3.518092 -3.780106 0.239872 3.006655
-3.520621 -3.756102 0.239001 3.006710
-3.533890 -3.743845 0.238947 3.006766
-3.551206 -3.735921 0.239199 3.006821
-3.549353 -3.707551 0.238023 3.006877
-3.556958 -3.689393 0.237562 3.006932
-3.585881 -3.694978 0.238734 3.006985
-3.657031 -3.743014 0.242961 3.007041
-3.732724 -3.794906 0.247491 3.007096
-3.815790 -3.853471 0.252530 3.007152
-3.899308 -3.911502 0.257566 3.007208
-3.981874 -3.967576 0.262498 3.007263
-4.042520 -4.000530 0.266697 3.007321
-4.091272 -3.994129 0.268114 3.007430
-4.116750 -3.991091 0.268871 3.007485
-4.130834 -3.976751 0.268813 3.007541
-4.145567 -3.961642 0.268752 3.007599
-4.149486 -3.937494 0.267981 3.007655
-4.154034 -3.915474 0.267315 3.007708
-4.164960 -3.898250 0.267054 3.007763
-4.178719 -3.883742 0.266996 3.007819
-4.192428 -3.869187 0.266939 3.007874
-4.203163 -3.851861 0.266678 3.007930
-4.202099 -3.823656 0.265603 3.007986
-4.215599 -3.809017 0.265547 3.008041
-4.231996 -3.797027 0.265693 3.008097
-4.239480 -3.776921 0.265230 3.008152
-4.249847 -3.759482 0.264970 3.008208
-4.251204 -3.734035 0.264100 3.008263
-4.262897 -3.717900 0.263943 3.008319
-4.232559 -3.664763 0.260939 3.008374
-4.244857 -3.650759 0.260886 3.008427
-4.299970 -3.672656 0.263677 3.008483
-4.252447 -3.605487 0.259557 3.008538
-4.077087 -3.429539 0.246907 3.008594
-4.089211 -3.415342 0.246855 3.008650
-4.069241 -3.374034 0.244670 3.008705
-3.871502 -3.184020 0.230710 3.008761
-3.876630 -3.165426 0.230256 3.008816
-3.883214 -3.148112 0.229903 3.008872
-3.900532 -3.139662 0.230260 3.008927
-3.910097 -3.124818 0.230110 3.008983
-3.910290 -3.102409 0.229352 3.009039
-3.916602 -3.085041 0.229000 3.009094
-3.927524 -3.071404 0.228952 3.009150
-3.939964 -3.058971 0.229005 3.009205
-3.944515 -3.040314 0.228552 3.009261
-3.955281 -3.026580 0.228505 3.009316
-3.953370 -3.003019 0.227647 3.009372
-3.964006 -2.989255 0.227600 3.009428
-3.974594 -2.975454 0.227553 3.009483
-3.975585 -2.954372 0.226898 3.009539
-3.966905 -2.926111 0.225636 3.009594
-3.959160 -2.899830 0.224479 3.009647
-3.975851 -2.890810 0.224838 3.009703
-3.982203 -2.875723 0.225915 3.009758
-3.995616 -2.864217 0.226073 3.009814
-4.004149 -2.849130 0.225927 3.009869
-4.019105 -2.838694 0.226186 3.009925
-4.063269 -2.849120 0.228273 3.009980
-4.110811 -2.861587 0.230562 3.010036
-4.155224 -2.871454 0.232647 3.010092
-4.219390 -2.894795 0.235949 3.010147
-4.265727 -2.905182 0.238134 3.010203
-4.307254 -2.911879 0.240014 3.010258
-4.324160 -2.901394 0.240373 3.010314
-4.314612 -2.872862 0.239110 3.010370
-4.245307 -2.804218 0.234198 3.010425
-4.217069 -2.763877 0.231822 3.010481
-4.240176 -2.758036 0.232587 3.010536
-4.258289 -2.748770 0.233049 3.010592
-4.234890 -2.693353 0.230432 3.010697
-4.261226 -2.689435 0.231400 3.010753
-4.266191 -2.670624 0.231049 3.010811
-4.282407 -2.660052 0.231410 3.010867
-4.296911 -2.648334 0.231669 3.010922
-4.672092 -2.839498 0.252826 3.011034
-4.251790 -2.558328 0.227188 3.011089
-4.272802 -2.550811 0.227852 3.011145
-4.275022 -2.531793 0.227405 3.011200
-4.284008 -2.516909 0.227362 3.011256
-4.292496 -2.502739 0.227321 3.011309
-4.308257 -2.491862 0.227683 3.011364
-4.329162 -2.483942 0.228347 3.011420
-4.339706 -2.469873 0.228405 3.011475
-4.348913 -2.454006 0.228361 3.011534
-4.350695 -2.434893 0.227914 3.011589
-4.359344 -2.419743 0.227872 3.011645
-4.374898 -2.408487 0.228233 3.011700
-4.381710 -2.392281 0.228090 3.011756
-4.386715 -2.375086 0.227846 3.011811
-4.384654 -2.354036 0.227199 3.011867
-3.125493 -1.578898 0.152454 3.012195
-3.120183 -1.563223 0.152444 3.012251
-3.131122 -1.555116 0.152719 3.012306
-3.129587 -1.540596 0.152287 3.012362
-3.126208 -1.525205 0.151754 3.012417
-3.138827 -1.517916 0.152130 3.012473
-3.151706 -1.510012 0.152504 3.012531
-3.160714 -1.500818 0.152678 3.012587
-3.162248 -1.488624 0.152450 3.012640
-3.167599 -1.477627 0.152422 3.012695
-3.190918 -1.475255 0.153403 3.012751
-3.181790 -1.457296 0.152568 3.012806
-3.190645 -1.447935 0.152742 3.012862
-3.199471 -1.438531 0.152916 3.012918
-3.197396 -1.424049 0.152486 3.012973
-3.202264 -1.413487 0.152460 3.013026
-3.218262 -1.407311 0.153037 3.013081
-3.216043 -1.392840 0.152607 3.013137
-3.239299 -1.389796 0.153587 3.013192
-3.222380 -1.368840 0.152351 3.013248
-3.252928 -1.368853 0.153734 3.013304
-3.246864 -1.352771 0.153103 3.013359
-3.266665 -1.347221 0.153880 3.013417
-3.238434 -1.321791 0.152041 3.013473
-3.287141 -1.329708 0.154431 3.013526
-3.310370 -1.325968 0.155411 3.013582
-3.440471 -1.269881 0.160225 3.014023
-3.329328 -1.213821 0.153967 3.014079
-4.161703 -1.514422 0.198455 3.014134
-4.174894 -1.502004 0.198823 3.014193
-4.182158 -1.488165 0.198892 3.014248
-4.196616 -1.477763 0.199363 3.014301
-4.185014 -1.457050 0.198427 3.014357
-4.180842 -1.439125 0.197894 3.014412
-4.174713 -1.420582 0.197260 3.014468
-4.191389 -1.409277 0.197829 3.014526
-4.192678 -1.393385 0.197597 3.014582
-4.193660 -1.378232 0.197366 3.014635
-4.209546 -1.368398 0.199231 3.014690
-4.222046 -1.356278 0.199602 3.014746
-4.219337 -1.339078 0.199169 3.014801
-4.176681 -1.308909 0.196624 3.014857
-4.111051 -1.271704 0.192874 3.014912
-4.062342 -1.240428 0.190029 3.014968
-4.011561 -1.208909 0.187085 3.015023
-3.970147 -1.180724 0.184644 3.015079
-3.913309 -1.148154 0.181400 3.015135
-3.869674 -1.120053 0.178860 3.015190
-3.827803 -1.092843 0.176422 3.015246
-3.778128 -1.063677 0.173583 3.015301
-3.749390 -1.041024 0.171849 3.015357
-3.704998 -1.014808 0.169313 3.015410
-3.652971 -0.986076 0.166376 3.015465
-3.614250 -0.961499 0.164142 3.015521
-3.583103 -0.939336 0.162310 3.015577
-3.549919 -0.916876 0.160379 3.015632
-3.508906 -0.892584 0.158047 3.015688
-3.461977 -0.867050 0.155414 3.015743
-3.428438 -0.845397 0.153484 3.015799
-3.392856 -0.823491 0.151455 3.015854
-3.378458 -0.807262 0.150530 3.015910
-3.342529 -0.786381 0.148503 3.015963
-3.296945 -0.762778 0.145974 3.016018
-3.266765 -0.743283 0.144248 3.016074
-3.242316 -0.725405 0.142823 3.016129
-3.212081 -0.705773 0.141097 3.016188
-3.179672 -0.686475 0.139272 3.016243
-3.139380 -0.665631 0.137047 3.016299
-3.118468 -0.649460 0.135824 3.016355
-3.089681 -0.631719 0.134201 3.016410
-3.068615 -0.615885 0.132980 3.016466
-3.043458 -0.599900 0.131559 3.016518
-3.008454 -0.582030 0.129638 3.016571
-2.987165 -0.566717 0.128417 3.016627
-2.957976 -0.549970 0.126797 3.016682
-2.936543 -0.534997 0.125577 3.016738
-2.911120 -0.519412 0.124158 3.016793
-2.881605 -0.503759 0.122539 3.016846
-2.859963 -0.489296 0.121321 3.016902
-2.836292 -0.474626 0.120003 3.016958
-2.822379 -0.461915 0.119185 3.017013
-2.800633 -0.447419 0.117967 3.017071
-2.770863 -0.432199 0.116350 3.017127
-2.748979 -0.418062 0.115133 3.017185
-2.734830 -0.405880 0.114316 3.017241
-2.708521 -0.392592 0.113537 3.017296
-2.694264 -0.380662 0.112720 3.017352
-2.660149 -0.366211 0.110901 3.017405
-2.655585 -0.356527 0.110587 3.017457
-2.637226 -0.344350 0.109570 3.017513
-2.616838 -0.332017 0.108454 3.017569
-2.600416 -0.319943 0.107537 3.017627
-2.564093 -0.305699 0.105620 3.017683
-2.553435 -0.295191 0.105005 3.017738
-2.542736 -0.284762 0.104391 3.017794
-2.524013 -0.273834 0.103377 3.017847
-2.507282 -0.262847 0.102462 3.017902
-2.482574 -0.251020 0.101147 3.017958
-2.463765 -0.240069 0.100133 3.018013
-2.448879 -0.229705 0.099320 3.018069
-2.437921 -0.219888 0.098707 3.018124
-2.418981 -0.209301 0.097693 3.018180
-2.390061 -0.197822 0.096180 3.018236
-2.373017 -0.187738 0.095267 3.018291
-2.365873 -0.178737 0.094855 3.018347
-2.348750 -0.168863 0.093943 3.018402
-2.333576 -0.159290 0.093131 3.018458
-2.312395 -0.149313 0.092019 3.018513
-2.301125 -0.140305 0.091408 3.018569
-2.297755 -0.132406 0.091198 3.018622
-2.284429 -0.123380 0.090486 3.018677
-2.269103 -0.113914 0.089675 3.018736
-2.247733 -0.104544 0.088564 3.018791
-2.236267 -0.096359 0.087955 3.018844
-2.224796 -0.087867 0.087344 3.018900
-2.217280 -0.079686 0.086934 3.018955
-2.199762 -0.071017 0.086024 3.019011
-2.176226 -0.062168 0.084815 3.019066
-2.166621 -0.054146 0.084305 3.019122
-2.154992 -0.046105 0.083696 3.019177
-2.143332 -0.038147 0.083087 3.019233
-2.135636 -0.030418 0.082678 3.019289
-2.105952 -0.022010 0.081170 3.019344
-2.100193 -0.014528 0.080861 3.019400
-2.096406 -0.007140 0.080652 3.019455
-2.088598 0.000313 0.080243 3.019511
-2.074773 0.007828 0.079535 3.019567
-2.050934 0.015405 0.078328 3.019622
-2.047040 0.022565 0.078120 3.019678
-2.035133 0.029770 0.077512 3.019733
-2.027195 0.036869 0.077104 3.019789
-2.018928 0.043008 0.077328 3.019844
-2.002951 0.049986 0.076519 3.019900
-1.990947 0.056526 0.075911 3.019953
-1.982916 0.063019 0.075503 3.020005
-1.974860 0.069801 0.075096 3.020061
-1.962786 0.076467 0.074488 3.020117
-1.946689 0.083313 0.073679 3.020175
-1.934570 0.089796 0.073072 3.020231
-1.934411 0.096500 0.073064 3.020286
-1.926241 0.102972 0.072657 3.020342
-1.914057 0.109257 0.072050 3.020397
-1.893867 0.115170 0.071043 3.020453
-1.891636 0.121326 0.070936 3.020506
-1.889371 0.127795 0.070829 3.020561
-1.881113 0.133646 0.070423 3.020614
-1.872820 0.139767 0.070016 3.020669
-1.852539 0.145194 0.069010 3.020725
-1.848198 0.151386 0.068804 3.020781
-1.843836 0.157549 0.068597 3.020836
-1.835446 0.163746 0.068191 3.020895
-1.831043 0.169836 0.067985 3.020950
-1.806717 0.174170 0.066779 3.021003
-1.802279 0.180132 0.066573 3.021059
-1.803797 0.186530 0.066667 3.021114
-1.789363 0.191645 0.065962 3.021170
-1.780888 0.197167 0.065556 3.021225
-1.768415 0.202281 0.064951 3.021281
-1.759907 0.207674 0.064546 3.021336
-1.751384 0.213010 0.064141 3.021392
-1.746819 0.218683 0.063935 3.021448
-1.738262 0.223917 0.063530 3.021503
-1.715817 0.227324 0.062426 3.021556
-1.711207 0.232831 0.062221 3.021611
-1.712534 0.238979 0.062316 3.021667
-1.705903 0.244215 0.062011 3.021723
-1.699255 0.249408 0.061707 3.021778
-1.684663 0.253578 0.061003 3.021834
-1.679970 0.258906 0.060798 3.021889
-1.677240 0.264463 0.060693 3.021945
-1.676472 0.270269 0.060688 3.022001
-1.663811 0.274437 0.060085 3.022056
-1.651141 0.278521 0.059481 3.022112
-1.648347 0.283949 0.059377 3.022167
-1.637434 0.287553 0.059288 3.022223
-1.632635 0.292621 0.059084 3.022278
-1.623872 0.297045 0.058679 3.022334
-1.611197 0.300504 0.058075 3.022387
-1.602415 0.304799 0.057671 3.022442
-1.601551 0.310067 0.057668 3.022495
-1.596683 0.314942 0.057464 3.022551
-1.587817 0.319380 0.057060 3.022609
-1.571120 0.322093 0.056256 3.022665
-1.570150 0.327529 0.056252 3.022720
-1.565232 0.332239 0.056048 3.022776
-1.560300 0.336917 0.055845 3.022831
-1.559278 0.342315 0.055841 3.022887
-1.546473 0.345418 0.055238 3.022942
-1.541503 0.349990 0.055035 3.022998
-1.536519 0.354531 0.054831 3.023054
-1.531523 0.359041 0.054628 3.023109
-1.530424 0.364338 0.054625 3.023165
-1.513677 0.366303 0.053822 3.023220
-1.508648 0.370692 0.053619 3.023276
-1.507509 0.375910 0.053616 3.023331
-1.502453 0.380250 0.053413 3.023387
-1.501280 0.385446 0.053410 3.023443
-1.476794 0.384981 0.052208 3.023495
-1.475665 0.389832 0.052205 3.023548
-1.474459 0.394934 0.052202 3.023604
-1.473235 0.400032 0.052199 3.023659
-1.464234 0.403219 0.051797 3.023715
-1.451352 0.405382 0.051195 3.023770
-1.450155 0.410148 0.051192 3.023823
-1.445009 0.414168 0.050990 3.023879
-1.439787 0.418406 0.050787 3.023937
-1.434619 0.422362 0.050585 3.023993
-1.425582 0.425252 0.050183 3.024048
-1.428108 0.431227 0.050380 3.024104
-1.422906 0.435102 0.050178 3.024159
-1.419618 0.439482 0.050076 3.024215
-1.406707 0.441125 0.049474 3.024271
-1.395721 0.443233 0.048973 3.024326
-1.390493 0.446941 0.048771 3.024382
-1.389088 0.451746 0.048769 3.024437
-1.387666 0.456545 0.048767 3.024493
-1.382403 0.460185 0.048565 3.024549
-1.371401 0.462041 0.048064 3.024604
-1.360403 0.463825 0.047563 3.024660
-1.358648 0.467556 0.048208 3.024715
-1.364784 0.474666 0.048607 3.024771
-1.353845 0.476096 0.048105 3.024823
-1.340936 0.477073 0.047502 3.024879
-1.333731 0.479835 0.047200 3.024935
-1.337895 0.486333 0.047500 3.024990
-1.330670 0.489045 0.047198 3.025046
-1.331007 0.494284 0.047297 3.025101
-1.312434 0.493033 0.046394 3.025157
-1.310866 0.497566 0.046392 3.025213
-1.311166 0.502757 0.046491 3.025268
-1.307682 0.506616 0.046390 3.025324
-1.298548 0.508428 0.045988 3.025379
-1.281909 0.507450 0.045186 3.025435
-1.284040 0.513255 0.045385 3.025490
-1.282401 0.517689 0.045384 3.025546
-1.280747 0.522117 0.045383 3.025601
-1.275342 0.525121 0.045182 3.025657
-1.266286 0.526445 0.044781 3.025710
-1.257151 0.527930 0.044379 3.025765
-1.259181 0.533726 0.044579 3.025821
-1.257472 0.538073 0.044578 3.025877
-1.252036 0.540932 0.044377 3.025932
-1.235482 0.539274 0.043575 3.025988
-1.237453 0.545046 0.043775 3.026043
-1.235703 0.549317 0.043774 3.026099
-1.233939 0.553582 0.043774 3.026155
-1.228476 0.556294 0.043573 3.026210
-1.215653 0.555855 0.042971 3.026266
-1.213866 0.560050 0.042971 3.026321
-1.212065 0.564238 0.042971 3.026377
-1.206587 0.566823 0.042770 3.026432
-1.201106 0.569376 0.042569 3.026488
-1.188321 0.568649 0.041968 3.026543
-1.186581 0.572544 0.041968 3.026596
-1.184736 0.576637 0.041968 3.026652
-1.193777 0.585706 0.042568 3.026707
-1.195513 0.591497 0.042768 3.026763
-1.197224 0.597308 0.042969 3.026819
-1.202524 0.604836 0.043369 3.026874
-1.209591 0.613263 0.043870 3.026930
-1.216614 0.621746 0.044370 3.026985
-1.216395 0.626812 0.044470 3.027041
-1.214361 0.631008 0.044471 3.027096
-1.215897 0.636960 0.044671 3.027152
-1.224565 0.646477 0.045272 3.027207
-1.229609 0.654276 0.045673 3.027263
-1.234443 0.661443 0.046521 3.027319
-1.225163 0.662081 0.046120 3.027374
-1.230112 0.669956 0.046522 3.027430
-1.238570 0.679709 0.047125 3.027485
-1.246973 0.689529 0.047728 3.027541
-1.244717 0.693833 0.047728 3.027596
-1.238918 0.696256 0.047528 3.027652
-1.247321 0.705972 0.048131 3.027705
-2.288250 1.292178 0.108176 3.027863
-2.267496 1.292600 0.107273 3.027927
-2.254406 1.295598 0.106773 3.027983
-2.239583 1.297540 0.106171 3.028038
-2.228248 1.301365 0.105771 3.028094
-2.211930 1.301767 0.105070 3.028147
-2.186760 1.297474 0.103866 3.028202
-2.170285 1.298034 0.103165 3.028258
-2.171072 1.308583 0.103468 3.028313
-2.163209 1.314079 0.103268 3.028369
-2.151900 1.317494 0.102869 3.028425
-2.133519 1.317107 0.102067 3.028483
-2.117101 1.317269 0.101366 3.028538
-2.102413 1.318371 0.100765 3.028594
-2.091148 1.321477 0.100366 3.028650
-2.081586 1.325570 0.100066 3.028705
-2.060156 1.322213 0.099064 3.028761
-2.052305 1.327226 0.098865 3.028816
-2.046131 1.333268 0.098767 3.028872
-2.026470 1.330686 0.097866 3.028927
-2.008531 1.329063 0.097064 3.028983
-1.987500 1.324812 0.096062 3.029036
-1.979901 1.329170 0.095864 3.029088
-1.968957 1.331297 0.095464 3.029141
-1.958020 1.333365 0.095065 3.029194
-1.942868 1.334506 0.094465 3.029258
-1.925099 1.332315 0.093664 3.029314
-1.914207 1.334166 0.093265 3.029366
-1.906399 1.338542 0.093066 3.029422
-1.893646 1.339482 0.092567 3.029478
-1.889117 1.346039 0.092570 3.029533
-1.866552 1.340000 0.091467 3.029589
-1.860388 1.345314 0.091370 3.029644
-1.852580 1.349445 0.091172 3.029700
-1.843141 1.352376 0.090873 3.029755
-1.828741 1.350659 0.091077 3.029811
-1.804759 1.342930 0.089870 3.029866
-1.795603 1.345335 0.089570 3.029919
-1.789443 1.350367 0.089473 3.029975
-1.784874 1.356562 0.089476 3.030030
-1.772277 1.356771 0.088975 3.030086
-1.751715 1.350910 0.087969 3.030142
-1.743959 1.354563 0.087771 3.030197
-1.734610 1.356966 0.087472 3.030253
-1.725265 1.359321 0.087172 3.030308
-1.717505 1.362848 0.086974 3.030364
-1.698710 1.357746 0.086069 3.030420
-1.690973 1.361158 0.085871 3.030475
-1.683233 1.364532 0.085673 3.030531
-1.673926 1.366626 0.085374 3.030586
-1.661508 1.366171 0.084873 3.030642
-1.641571 1.359090 0.083867 3.030694
-1.633873 1.362248 0.083669 3.030750
-1.629264 1.367900 0.083673 3.030806
-1.624636 1.373535 0.083676 3.030861
-1.610766 1.371499 0.083075 3.030917
-1.590801 1.364258 0.082069 3.030972
-1.583129 1.367186 0.081871 3.031028
-1.581550 1.375243 0.082077 3.031084
-1.570820 1.375523 0.081677 3.031139
-1.560108 1.375745 0.081277 3.031195
-1.543374 1.370677 0.080474 3.031250
-1.538736 1.376012 0.080478 3.031306
-1.534079 1.381331 0.080482 3.031361
-1.526412 1.383987 0.080284 3.031417
-1.512780 1.381291 0.079682 3.031472
-1.493237 1.373181 0.078677 3.031528
-1.488823 1.378083 0.078681 3.031581
-1.487115 1.385916 0.078887 3.031636
-1.476767 1.385403 0.078487 3.031689
-1.469141 1.387798 0.078289 3.031745
-1.452967 1.381750 0.077485 3.031798
-1.445373 1.384042 0.077288 3.031853
-1.440219 1.389534 0.077292 3.031914
-1.432618 1.391760 0.077095 3.031970
-1.422365 1.390944 0.076695 3.032023
-1.409018 1.387550 0.076093 3.032078
-1.404322 1.392416 0.076098 3.032134
-1.399609 1.397266 0.076102 3.032189
-1.393218 1.400941 0.076006 3.032248
-1.389824 1.406425 0.076678 3.032303
-1.375154 1.401359 0.075973 3.032359
-1.370408 1.406108 0.075978 3.032414
-1.365645 1.410841 0.075982 3.032470
-1.355264 1.409859 0.075582 3.032526
-1.347697 1.411680 0.075384 3.032581
-1.335963 1.409164 0.074882 3.032637
-1.328658 1.410669 0.074683 3.032690
-1.324119 1.415026 0.074688 3.032742
-1.316574 1.416701 0.074490 3.032798
-1.310404 1.419792 0.074394 3.032853
-1.298764 1.417028 0.073892 3.032909
-1.288522 1.415661 0.073491 3.032965
-1.279660 1.415706 0.073192 3.033020
-1.278916 1.424537 0.073501 3.033076
-1.267363 1.421567 0.072999 3.033131
-1.254506 1.417053 0.072395 3.033187
-1.248371 1.419896 0.072299 3.033242
-1.237152 1.416536 0.071797 3.033295
-1.237653 1.426782 0.072207 3.033351
-1.226222 1.423554 0.071705 3.033406
-1.213272 1.418968 0.071102 3.033465
-1.208466 1.423151 0.071107 3.033520
-1.201038 1.424292 0.070910 3.033576
-1.196213 1.428433 0.070915 3.033632
-1.194203 1.435396 0.071123 3.033684
-1.173884 1.421192 0.069910 3.033740
-1.171636 1.428300 0.070119 3.033795
-1.164242 1.429267 0.069921 3.033851
-1.159400 1.433280 0.069926 3.033906
-1.150745 1.432642 0.069627 3.033962
-1.140847 1.430411 0.069226 3.034018
-1.132234 1.429682 0.068927 3.034073
-1.128640 1.435140 0.069034 3.034129
-1.121289 1.435904 0.068837 3.034184
-1.112706 1.435067 0.068537 3.034240
-1.097973 1.426334 0.067731 3.034296
-1.095598 1.433265 0.067939 3.034351
-1.088297 1.433880 0.067742 3.034407
-1.085874 1.440794 0.067950 3.034462
-1.078569 1.441357 0.067753 3.034518
-1.061864 1.428967 0.066742 3.034571
-1.057024 1.432622 0.066748 3.034626
-1.049780 1.433060 0.066550 3.034682
-1.044925 1.436673 0.066556 3.034737
-1.041242 1.441877 0.066663 3.034793
-1.024571 1.429334 0.065653 3.034848
-1.017384 1.429625 0.065456 3.034904
-1.014876 1.436367 0.065664 3.034960
-1.005364 1.433358 0.065264 3.035015
-0.997040 1.431930 0.064965 3.035071
-0.989890 1.432093 0.064767 3.035126
-0.982749 1.432223 0.064570 3.035182
-0.978141 1.435433 0.064575 3.035235
-0.975789 1.441917 0.064784 3.035287
-0.972956 1.447258 0.066026 3.035343
-0.962436 1.442343 0.065520 3.035399
-0.955312 1.442341 0.065320 3.035454
-0.951533 1.447285 0.065428 3.035510
-0.946871 1.450394 0.065433 3.035563
-0.941953 1.453649 0.065438 3.035618
-0.930460 1.446859 0.064829 3.035674
-0.927730 1.453407 0.065039 3.035729
-0.922555 1.456754 0.065045 3.035788
-0.915462 1.456559 0.064845 3.035843
-0.908383 1.456331 0.064646 3.035899
-0.897059 1.449310 0.064037 3.035954
-0.894014 1.455934 0.064248 3.036013
-0.889077 1.459005 0.064253 3.036068
-0.882284 1.458503 0.064053 3.036121
-0.877586 1.461381 0.064058 3.036174
-0.862282 1.447310 0.063040 3.036229
-0.856345 1.448558 0.062943 3.036285
-0.850411 1.449782 0.062846 3.036340
-0.850580 1.461296 0.063364 3.036396
-0.844613 1.462492 0.063267 3.036452
-0.831615 1.451580 0.062453 3.036507
-0.827692 1.456163 0.062561 3.036563
-0.822754 1.459002 0.062566 3.036618
-0.821753 1.468771 0.062981 3.036674
-0.811135 1.461009 0.062372 3.036727
-0.800332 1.453330 0.061763 3.036782
-0.797341 1.459568 0.061974 3.036838
-0.790467 1.458800 0.061774 3.036893
-0.787432 1.465017 0.061985 3.036949
-0.782464 1.467715 0.061990 3.037005
-0.771573 1.459969 0.061381 3.037063
-0.766375 1.462744 0.061387 3.037121
-0.762097 1.467267 0.061496 3.037180
-0.758794 1.471256 0.061603 3.037227
-0.751965 1.470308 0.061404 3.037282
-0.740584 1.460449 0.060692 3.037338
-0.737446 1.466544 0.060902 3.037394
-0.734275 1.472633 0.061113 3.037449
-0.727491 1.471574 0.060914 3.037505
-0.721611 1.472275 0.060817 3.037560
-0.711324 1.463992 0.060208 3.037616
-0.706360 1.466425 0.060213 3.037672
-0.699648 1.465244 0.060014 3.037727
-0.698102 1.474601 0.060610 3.037783
-0.690528 1.471576 0.060308 3.037838
-0.677028 1.455866 0.059287 3.037894
-0.672935 1.459990 0.059396 3.037949
-0.667985 1.462289 0.059401 3.038005
-0.662193 1.462755 0.059304 3.038060
-0.659133 1.468541 0.059515 3.038113
-0.650055 1.461685 0.059007 3.038169
-0.645098 1.463904 0.059013 3.038224
-0.640940 1.467933 0.059121 3.038280
-0.637562 1.473781 0.059332 3.038336
-0.629387 1.468626 0.058927 3.038391
-0.621504 1.463324 0.058521 3.038444
-0.614979 1.461768 0.058322 3.038500
-0.610549 1.465810 0.058430 3.038558
-0.606346 1.469735 0.058539 3.038613
-0.599075 1.466263 0.058236 3.038669
-0.591081 1.460908 0.057831 3.038724
-0.586128 1.462922 0.057837 3.038780
-0.579681 1.461210 0.057637 3.038836
-0.576448 1.466799 0.057848 3.038888
-0.571722 1.468663 0.057853 3.038941
-0.562399 1.459440 0.057242 3.038997
-0.559603 1.466945 0.057557 3.039052
-0.554628 1.468849 0.057562 3.039108
-0.548943 1.468866 0.057465 3.039164
-0.543263 1.468861 0.057368 3.039219
-0.535518 1.463212 0.056963 3.039275
-0.531241 1.466908 0.057072 3.039330
-0.526945 1.470591 0.057180 3.039386
-0.523300 1.476143 0.057392 3.039441
-0.515634 1.470386 0.056986 3.039497
-0.506699 1.460822 0.056375 3.039552
-0.501745 1.462541 0.056381 3.039608
-0.499367 1.471804 0.056798 3.039664
-0.494376 1.473497 0.056804 3.039719
-0.489042 1.474299 0.057529 3.039778
-0.480287 1.464576 0.056915 3.039833
-0.475816 1.466042 0.056920 3.039883
-0.472067 1.471457 0.057132 3.039939
-0.467074 1.473056 0.057138 3.039994
-0.460628 1.470905 0.056937 3.040053
-0.451834 1.461097 0.056323 3.040111
-0.446878 1.462626 0.056329 3.040167
-0.445638 1.475531 0.056954 3.040219
-0.440882 1.476963 0.056959 3.040272
-0.437002 1.482284 0.057172 3.040328
-0.427497 1.468422 0.056350 3.040383
-0.422515 1.469865 0.056356 3.040439
-0.416436 1.467449 0.056155 3.040494
-0.414944 1.480322 0.056781 3.040547
-0.407789 1.474023 0.056373 3.040603
-0.401735 1.471544 0.056171 3.040658
-0.395703 1.469040 0.055970 3.040714
-0.391745 1.474234 0.056183 3.040770
-0.387755 1.479417 0.056395 3.040825
-0.382735 1.480722 0.056401 3.040881
-0.373770 1.466524 0.055579 3.040936
-0.369767 1.471655 0.055792 3.040992
-0.365732 1.476775 0.056004 3.041047
-0.360721 1.478003 0.056010 3.041103
-0.356636 1.483098 0.056223 3.041158
-0.348853 1.472630 0.055608 3.041214
-0.343856 1.473800 0.055613 3.041270
-0.339746 1.478845 0.055826 3.041325
-0.335604 1.483880 0.056039 3.041381
-0.330821 1.484947 0.056044 3.041434
-0.324082 1.478247 0.055636 3.041489
-0.318230 1.475423 0.055435 3.041545
-0.314869 1.484303 0.055855 3.041600
-0.309833 1.485354 0.055860 3.041656
-0.304792 1.486387 0.055866 3.041712
-0.298185 1.479567 0.055458 3.041767
-0.293165 1.480559 0.055464 3.041823
-0.288895 1.485457 0.055677 3.041878
-0.283855 1.486416 0.055682 3.041934
-0.279537 1.491286 0.055895 3.041989
-0.271624 1.476492 0.055072 3.042045
-0.268014 1.485257 0.055493 3.042100
-0.262974 1.486144 0.055499 3.042156
-0.258603 1.490951 0.055712 3.042212
-0.252227 1.483925 0.055303 3.042267
-0.246154 1.476831 0.054894 3.042320
-0.242406 1.485530 0.055315 3.042376
-0.237621 1.485638 0.055862 3.042428
-0.233788 1.494316 0.056283 3.042484
-0.227532 1.487183 0.055873 3.042540
-0.221907 1.483976 0.055671 3.042595
-0.216618 1.484739 0.055677 3.042653
-0.212127 1.489403 0.055891 3.042709
-0.207323 1.490062 0.055896 3.042762
-0.202264 1.490737 0.055902 3.042817
-0.196696 1.487433 0.055700 3.042873
-0.191152 1.484108 0.055498 3.042928
-0.186342 1.488723 0.055712 3.042987
-0.181755 1.493293 0.055925 3.043042
-0.176234 1.489910 0.055723 3.043098
-0.170737 1.486507 0.055521 3.043154
-0.165518 1.483056 0.055318 3.043206
-0.161561 1.491506 0.055740 3.043259
-0.156498 1.492022 0.055745 3.043315
-0.150796 1.488569 0.055544 3.043373
-0.144752 1.481115 0.055134 3.043431
-0.140436 1.489530 0.055555 3.043487
-0.135974 1.493930 0.055769 3.043540
-0.131157 1.494336 0.055774 3.043592
-0.126398 1.498728 0.055988 3.043648
-0.120708 1.491155 0.055578 3.043704
-0.115647 1.491528 0.055584 3.043759
-0.110583 1.491883 0.055589 3.043815
-0.105779 1.496207 0.055803 3.043870
-0.100708 1.492526 0.055601 3.043923
-0.095409 1.488842 0.055398 3.043979
-0.090103 1.489140 0.055404 3.044037
-0.085252 1.493396 0.055618 3.044093
-0.080183 1.493646 0.055624 3.044148
-0.075543 1.497857 0.055838 3.044201
-0.069808 1.482107 0.055011 3.044257
-0.064927 1.486295 0.055225 3.044312
-0.060151 1.494458 0.055647 3.044368
-0.055199 1.498613 0.055861 3.044423
-0.050112 1.498757 0.055867 3.044479
-0.044746 1.486904 0.055248 3.044534
-0.039700 1.487012 0.055254 3.044590
-0.034847 1.499084 0.055885 3.044646
-0.029809 1.503152 0.056099 3.044701
-0.024633 1.495219 0.055688 3.044757
-0.019488 1.483274 0.055069 3.044812
-0.014450 1.481296 0.054971 3.044868
-0.009399 1.501271 0.056019 3.044924
-0.004530 1.507249 0.056337 3.044976
0.000608 1.506355 0.056980 3.045032
0.005380 1.498321 0.056567 3.045085
0.010557 1.504246 0.056886 3.045140
0.015994 1.508151 0.057101 3.045198
0.021162 1.510045 0.057211 3.045254
0.026090 1.501938 0.056798 3.045310
0.030846 1.489821 0.056176 3.045365
0.035776 1.485674 0.055972 3.045421
0.041035 1.491490 0.056291 3.045476
0.046335 1.497286 0.056610 3.045532
0.051165 1.491091 0.056302 3.045588
0.055882 1.488882 0.056203 3.045640
0.061136 1.492630 0.056417 3.045696
0.066417 1.496359 0.056632 3.045752
0.071498 1.496080 0.056637 3.045807
0.077178 1.505751 0.057166 3.045863
0.081531 1.493475 0.056543 3.045918
0.086870 1.497129 0.056758 3.045974
0.091674 1.492794 0.056554 3.046029
0.097776 1.506370 0.057292 3.046085
0.102275 1.498016 0.056879 3.046140
0.107362 1.497612 0.056885 3.046196
0.112448 1.497190 0.056890 3.046252
0.117883 1.500730 0.057105 3.046307
0.122979 1.500272 0.057110 3.046363
0.128453 1.503772 0.057325 3.046418
0.132383 1.491351 0.056702 3.046474
0.136941 1.490893 0.056707 3.046524
0.142840 1.498313 0.057132 3.046579
0.149050 1.505682 0.057556 3.046638
0.153716 1.501145 0.057352 3.046693
0.158353 1.496593 0.057148 3.046749
0.163435 1.495994 0.057154 3.046804
0.169492 1.503305 0.057578 3.046860
0.175100 1.506629 0.057793 3.046916
0.179962 1.506004 0.057798 3.046968
0.183487 1.493451 0.057175 3.047024
0.189645 1.500678 0.057600 3.047080
0.194740 1.499969 0.057605 3.047135
0.201547 1.511103 0.058240 3.047191
0.205803 1.504425 0.057931 3.047246
0.210612 1.501684 0.057831 3.047302
0.216324 1.504849 0.058046 3.047358
0.221487 1.505621 0.058502 3.047410
0.227240 1.508744 0.058717 3.047466
0.231387 1.501993 0.058407 3.047521
0.236156 1.499170 0.058307 3.047577
0.242948 1.508139 0.058838 3.047632
0.248765 1.511178 0.059053 3.047688
0.252936 1.506378 0.058848 3.047741
0.258773 1.509378 0.059063 3.047796
0.263167 1.504501 0.058858 3.047852
0.269025 1.507460 0.059073 3.047908
0.275669 1.514317 0.059499 3.047963
0.280814 1.513308 0.059504 3.048019
0.285955 1.512281 0.059509 3.048074
0.289488 1.503410 0.059094 3.048130
0.296227 1.510174 0.059519 3.048186
0.302187 1.513000 0.059735 3.048241
0.306484 1.507995 0.059530 3.048297
0.312892 1.512730 0.059850 3.048352
0.315418 1.499896 0.059225 3.048408
0.321839 1.504592 0.059545 3.048463
0.326950 1.503422 0.059550 3.048519
0.332968 1.506123 0.059766 3.048574
0.335054 1.493317 0.059140 3.048627
0.337311 1.480453 0.058514 3.048683
0.341386 1.475349 0.058308 3.048738
0.346394 1.474112 0.058314 3.048794
0.350419 1.468983 0.058108 3.048850
0.354165 1.463908 0.057903 3.048902
0.354108 1.443296 0.056856 3.048958
0.357987 1.438151 0.056650 3.049013
0.363897 1.440714 0.056865 3.049069
0.366693 1.431687 0.056450 3.049125
0.371549 1.430361 0.056454 3.049180
0.369966 1.405931 0.055196 3.049236
0.374494 1.404661 0.055201 3.049289
0.379255 1.403308 0.055206 3.049344
0.382900 1.398101 0.055000 3.049400
0.387639 1.396719 0.055005 3.049455
0.387818 1.380005 0.054168 3.049511
0.389845 1.368974 0.053646 3.049569
0.394482 1.367567 0.053651 3.049625
0.398882 1.366216 0.053655 3.049678
0.403529 1.364017 0.054244 3.049733
0.403333 1.347329 0.053403 3.049789
0.409115 1.349681 0.053618 3.049844
0.414303 1.350109 0.053728 3.049900
0.422610 1.360005 0.054365 3.049955
0.425960 1.354694 0.054158 3.050011
0.429279 1.349375 0.053951 3.050066
0.432566 1.344050 0.053744 3.050122
0.441010 1.353829 0.054381 3.050178
0.448218 1.359792 0.054808 3.050233
0.451501 1.354414 0.054600 3.050289
0.455421 1.350911 0.054499 3.050344
0.460672 1.351157 0.054608 3.050400
0.467975 1.357013 0.055035 3.050456
0.473719 1.359170 0.055250 3.050508
0.476934 1.353726 0.055042 3.050564
0.478717 1.344536 0.054624 3.050619
0.484686 1.346556 0.054839 3.050675
0.493529 1.356011 0.055477 3.050731
0.499564 1.357969 0.055692 3.050786
0.507072 1.363622 0.056119 3.050842
0.507292 1.350661 0.055489 3.050897
0.514827 1.356266 0.055915 3.050953
0.520913 1.358130 0.056130 3.051008
0.527020 1.359966 0.056346 3.051064
0.531627 1.358082 0.056350 3.051120
0.534697 1.352492 0.056142 3.051175
0.539279 1.350581 0.056146 3.051231
0.548523 1.359690 0.056784 3.051286
0.556270 1.365077 0.057211 3.051342
0.559082 1.359522 0.057003 3.051395
0.560497 1.350202 0.056584 3.051450
0.568286 1.355514 0.057011 3.051506
0.576118 1.360787 0.057438 3.051561
0.581544 1.360554 0.057548 3.051617
0.586977 1.360299 0.057657 3.051672
0.591585 1.358206 0.057661 3.051728
0.596186 1.356096 0.057665 3.051784
0.605830 1.364837 0.058303 3.051839
0.612150 1.366294 0.058519 3.051895
0.615071 1.360502 0.058311 3.051950
0.617957 1.354706 0.058103 3.052006
0.626015 1.359701 0.058530 3.052062
0.632368 1.361063 0.058746 3.052117
0.638523 1.362030 0.059347 3.052170
0.642908 1.359871 0.059350 3.052223
0.647516 1.357583 0.059353 3.052278
0.652347 1.355163 0.059357 3.052337
0.662363 1.363527 0.059996 3.052392
0.668573 1.364845 0.060211 3.052445
0.675030 1.366017 0.060427 3.052500
0.675971 1.356530 0.060006 3.052556
0.684282 1.361199 0.060433 3.052612
0.688894 1.358767 0.060437 3.052667
0.697262 1.363365 0.060864 3.052723
0.701881 1.360888 0.060868 3.052778
0.704587 1.354883 0.060659 3.052834
0.713015 1.359386 0.061086 3.052890
0.721482 1.363847 0.061514 3.052945
0.729989 1.368265 0.061941 3.053001
0.734626 1.365673 0.061945 3.053056
0.735320 1.356112 0.061524 3.053112
0.741664 1.357102 0.061739 3.053165
0.750244 1.361395 0.062167 3.053220
0.754857 1.358732 0.062170 3.053276
0.759460 1.356053 0.062173 3.053331
0.762028 1.349916 0.061964 3.053387
0.770679 1.354081 0.062392 3.053442
0.778342 1.356489 0.062713 3.053498
0.785000 1.357149 0.062929 3.053554
0.790636 1.356071 0.063038 3.053609
0.784797 1.336237 0.061980 3.053665
0.792470 1.338552 0.062302 3.053720
0.802279 1.344220 0.062835 3.053776
0.804709 1.337992 0.062626 3.053832
0.804747 1.328528 0.062205 3.053884
0.807100 1.322306 0.061996 3.053940
0.809419 1.316083 0.061787 3.053995
0.811705 1.309859 0.061578 3.054051
0.822679 1.317022 0.062218 3.054106
0.824944 1.310768 0.062008 3.054162
0.820565 1.294519 0.061162 3.054218
0.824944 1.291611 0.061165 3.054273
0.831540 1.292004 0.061381 3.054329
0.836129 1.288910 0.061384 3.054387
0.835987 1.279347 0.060962 3.054443
0.830837 1.263511 0.060116 3.054493
0.837381 1.263852 0.060331 3.054548
0.843936 1.264163 0.060546 3.054604
0.848273 1.260467 0.061138 3.054659
0.850229 1.254203 0.060927 3.054715
0.845200 1.238180 0.060078 3.054771
0.849386 1.235187 0.060080 3.054826
0.853560 1.232180 0.060083 3.054882
0.860076 1.232386 0.060298 3.054937
0.861878 1.226121 0.060087 3.054993
0.856526 1.210221 0.059238 3.055048
0.862999 1.210393 0.059453 3.055104
0.867087 1.207339 0.059455 3.055160
0.873572 1.207457 0.059670 3.055215
0.877649 1.204366 0.059672 3.055271
0.874428 1.191749 0.059035 3.055326
0.875810 1.185647 0.058824 3.055379
0.879612 1.182703 0.058826 3.055432
0.886065 1.182737 0.059041 3.055487
0.885111 1.173328 0.058617 3.055543
0.884103 1.163939 0.058193 3.055599
0.888028 1.160811 0.058195 3.055654
0.892139 1.157512 0.058197 3.055712
0.898559 1.157458 0.058412 3.055768
0.899741 1.151345 0.058201 3.055821
0.898547 1.141993 0.057777 3.055876
0.897299 1.132664 0.057353 3.055932
0.906234 1.135624 0.057781 3.055988
0.912631 1.135477 0.057995 3.056043
0.913877 1.129200 0.057784 3.056099
0.909908 1.116849 0.057147 3.056154
0.911067 1.110601 0.056936 3.056210
0.917606 1.110239 0.057151 3.056268
0.923968 1.110006 0.057365 3.056324
0.927519 1.106903 0.057367 3.056377
0.923314 1.094641 0.056730 3.056432
0.924160 1.088556 0.056518 3.056485
0.933151 1.091240 0.056946 3.056540
0.934148 1.084975 0.056735 3.056596
0.935295 1.078550 0.056523 3.056654
0.933711 1.069185 0.056099 3.056713
0.937306 1.065884 0.056101 3.056768
0.940711 1.062737 0.056102 3.056821
0.944104 1.059578 0.056103 3.056874
0.950401 1.059152 0.056318 3.056930
0.942977 1.044191 0.055467 3.056985
0.951997 1.046640 0.055895 3.057041
0.952746 1.040394 0.055683 3.057096
0.959017 1.039899 0.055898 3.057152
0.959803 1.033156 0.056063 3.057207
0.957682 1.024060 0.055637 3.057263
0.961121 1.020677 0.055638 3.057318
0.964720 1.017111 0.055639 3.057377
0.970961 1.016526 0.055854 3.057432
0.974203 1.013268 0.055854 3.057485
0.968900 1.001588 0.055215 3.057538
0.972261 0.998166 0.055216 3.057594
0.978474 0.997516 0.055430 3.057649
0.981988 0.993887 0.055431 3.057708
0.988206 0.993182 0.055645 3.057763
0.982856 0.981433 0.055006 3.057819
0.983242 0.975220 0.054793 3.057874
0.992337 0.977213 0.055221 3.057930
0.992690 0.970986 0.055008 3.057985
0.998713 0.970369 0.055222 3.058038
0.993141 0.958736 0.054583 3.058094
0.996352 0.955229 0.054584 3.058149
0.996591 0.949029 0.054371 3.058205
1.002738 0.948182 0.054585 3.058260
1.005912 0.944641 0.054586 3.058316
1.003098 0.935789 0.054159 3.058372
1.006228 0.932247 0.054160 3.058427
1.015359 0.933955 0.054587 3.058483
1.015468 0.927752 0.054374 3.058538
1.018571 0.924167 0.054375 3.058594
1.015594 0.915375 0.053949 3.058650
1.018654 0.911790 0.053949 3.058705
1.021700 0.908195 0.053950 3.058761
1.030704 0.909904 0.054377 3.058813
1.030675 0.903710 0.054164 3.058869
1.024460 0.892435 0.053524 3.058924
1.030526 0.891355 0.053738 3.058980
1.033502 0.887718 0.053739 3.059036
1.039569 0.886584 0.053952 3.059091
1.045641 0.885418 0.054166 3.059147
1.039230 0.874254 0.053526 3.059202
1.042000 0.870771 0.053527 3.059255
1.048043 0.869565 0.053740 3.059311
1.050943 0.865866 0.053741 3.059366
1.053829 0.862159 0.053741 3.059422
1.050374 0.853566 0.053314 3.059478
1.056390 0.852287 0.053528 3.059533
1.059229 0.848560 0.053528 3.059589
1.065245 0.847227 0.053742 3.059644
