# This PCD file was generated using the MATLAB® pcwrite function
# from Computer Vision System Toolbox®.
# .PCD v.7 - Point Cloud Data file format
VERSION .7
FIELDS x y z intensity
SIZE 4 4 4 4
TYPE F F F F
COUNT 1 1 1 1
WIDTH 1252
HEIGHT 1
VIEWPOINT 0 0 0 1 0 0 0
POINTS 1252
DATA ascii
0.874281 -1.515502 -0.298994 6.039447
0.861115 -1.504811 -0.296456 6.039503
0.860591 -1.516437 -0.298041 6.039558
0.852586 -1.514123 -0.297089 6.039611
0.845292 -1.513650 -0.296454 6.039667
0.833952 -1.506363 -0.294550 6.039725
0.823884 -1.500605 -0.292964 6.039781
0.821085 -1.508850 -0.293914 6.039839
0.820635 -1.520293 -0.295499 6.039892
0.810610 -1.514439 -0.293912 6.039948
0.802471 -1.512031 -0.292960 6.040003
0.790069 -1.500688 -0.290422 6.040056
0.784730 -1.503454 -0.290421 6.040112
0.777584 -1.502687 -0.289785 6.040167
0.765093 -1.491320 -0.287247 6.040223
0.755310 -1.486053 -0.284853 6.040279
0.741218 -1.471024 -0.281684 6.040334
0.738610 -1.478931 -0.282633 6.040390
0.733351 -1.481518 -0.282631 6.040446
0.726358 -1.480534 -0.281996 6.040501
0.722805 -1.486637 -0.282628 6.040557
0.713270 -1.480256 -0.281043 6.040613
0.706319 -1.479183 -0.280407 6.040668
0.702998 -1.485111 -0.281039 6.040721
0.700211 -1.492947 -0.281988 6.040777
0.694903 -1.495400 -0.281986 6.040833
0.687949 -1.494240 -0.281351 6.040888
0.681277 -1.492930 -0.280715 6.040941
0.671936 -1.486304 -0.279130 6.040997
0.668787 -1.494192 -0.280078 6.041055
0.665062 -1.500152 -0.280710 6.041111
0.661037 -1.506220 -0.281341 6.041169
0.662469 -1.522814 -0.283873 6.041219
0.662984 -1.539782 -0.286405 6.041277
0.664428 -1.558477 -0.289253 6.041333
0.665267 -1.575262 -0.291785 6.041386
0.656927 -1.570179 -0.290516 6.041439
0.711037 -1.718753 -0.315853 6.041497
0.990642 -2.425802 -0.437793 6.041556
0.998714 -2.469398 -0.444757 6.041608
1.032357 -2.579302 -0.463124 6.041664
1.040630 -2.627002 -0.470721 6.041720
1.050735 -2.680311 -0.479268 6.041775
0.777088 -1.998519 -0.361444 6.041828
0.751683 -1.953277 -0.353206 6.041884
0.741275 -1.946672 -0.351620 6.041940
0.731614 -1.941867 -0.350349 6.041995
0.741270 -2.011994 -0.361427 6.042109
1.089027 -2.992913 -0.528326 6.042162
1.099004 -3.052292 -0.537822 6.042215
1.106844 -3.110296 -0.547000 6.042274
1.106991 -3.145842 -0.552378 6.042329
1.094616 -3.145973 -0.551739 6.042385
1.086094 -3.157266 -0.553000 6.042440
1.072438 -3.153575 -0.551727 6.042496
1.057493 -3.144025 -0.549505 6.042549
1.046485 -3.149775 -0.549815 6.042607
1.033548 -3.147796 -0.548859 6.042663
1.024282 -3.157040 -0.549803 6.042718
1.011359 -3.154972 -0.548846 6.042774
0.998998 -3.152901 -0.547783 6.042827
0.987306 -3.154502 -0.547460 6.042883
0.976777 -3.159835 -0.547770 6.042938
0.966797 -3.167022 -0.548396 6.042994
0.953371 -3.162831 -0.547123 6.043050
0.939423 -3.156692 -0.545533 6.043105
0.928860 -3.161866 -0.545843 6.043161
0.916628 -3.161313 -0.545202 6.043217
0.906577 -3.168310 -0.545828 6.043272
0.894349 -3.167672 -0.545188 6.043328
0.880578 -3.159222 -0.543281 6.043381
0.869452 -3.162295 -0.543274 6.043437
0.857283 -3.161517 -0.542634 6.043492
0.849203 -3.175958 -0.544526 6.043548
0.837014 -3.175101 -0.543885 6.043603
0.822859 -3.166553 -0.541978 6.043659
0.813243 -3.173108 -0.542604 6.043712
0.801104 -3.172116 -0.541963 6.043767
0.790492 -3.174773 -0.541955 6.043820
0.778374 -3.173695 -0.541314 6.043876
0.766272 -3.172572 -0.540673 6.043931
0.755100 -3.175246 -0.540665 6.043987
0.744817 -3.181726 -0.541291 6.044043
0.732727 -3.180477 -0.540649 6.044098
0.720656 -3.179181 -0.540008 6.044154
0.707744 -3.173986 -0.538733 6.044210
0.696568 -3.176455 -0.538725 6.044265
0.685383 -3.178886 -0.538717 6.044321
0.673629 -3.181396 -0.538708 6.044379
0.661622 -3.179880 -0.538066 6.044435
0.649635 -3.178319 -0.537424 6.044491
0.638444 -3.180586 -0.537416 6.044547
0.629333 -3.190452 -0.538673 6.044599
0.619412 -3.196417 -0.539298 6.044652
0.606682 -3.190818 -0.538023 6.044708
0.592551 -3.177404 -0.535482 6.044764
0.582785 -3.187242 -0.536739 6.044819
0.572259 -3.193163 -0.537363 6.044875
0.560454 -3.195259 -0.537353 6.044933
0.549204 -3.197214 -0.537344 6.044989
0.536541 -3.187351 -0.535436 6.045042
0.525962 -3.193120 -0.536060 6.045097
0.515282 -3.194864 -0.536051 6.045150
0.502908 -3.196840 -0.536040 6.045211
0.491552 -3.195139 -0.535105 6.045264
0.479690 -3.188957 -0.533830 6.045317
0.468477 -3.194621 -0.534453 6.045375
0.457789 -3.204155 -0.535708 6.045434
0.447074 -3.205673 -0.535699 6.045487
0.434724 -3.199406 -0.534423 6.045542
0.424025 -3.200847 -0.534414 6.045595
0.412759 -3.202326 -0.534404 6.045651
0.400993 -3.199846 -0.533761 6.045706
0.390209 -3.205165 -0.534383 6.045762
0.379858 -3.214370 -0.535638 6.045818
0.367641 -3.207847 -0.534363 6.045874
0.355474 -3.201278 -0.533087 6.045929
0.344630 -3.206445 -0.533709 6.045985
0.333755 -3.211575 -0.534331 6.046041
0.321657 -3.204879 -0.533055 6.046096
0.309993 -3.202069 -0.532412 6.046152
0.299093 -3.207082 -0.533034 6.046207
0.288726 -3.212007 -0.533656 6.046260
0.277764 -3.216949 -0.534278 6.046316
0.265783 -3.210044 -0.533002 6.046371
0.254170 -3.207034 -0.532358 6.046427
0.242580 -3.203982 -0.531714 6.046483
0.231592 -3.208766 -0.532336 6.046538
0.220573 -3.213513 -0.532957 6.046594
0.209523 -3.218223 -0.533578 6.046649
0.197457 -3.207127 -0.531670 6.046705
0.186635 -3.215700 -0.532923 6.046761
0.175099 -3.212407 -0.532279 6.046816
0.164204 -3.220905 -0.533533 6.046872
0.152868 -3.221477 -0.533521 6.046928
0.141176 -3.214118 -0.532244 6.046983
0.130028 -3.218555 -0.532865 6.047039
0.118701 -3.219007 -0.532853 6.047095
0.107939 -3.219401 -0.532842 6.047148
0.097300 -3.223706 -0.533463 6.047201
0.085735 -3.216148 -0.532186 6.047256
0.074417 -3.216446 -0.532174 6.047312
0.062613 -3.220665 -0.532794 6.047370
0.051347 -3.224831 -0.533414 6.047426
0.040457 -3.217102 -0.532137 6.047479
0.029094 -3.213293 -0.531493 6.047534
0.017786 -3.213393 -0.531480 6.047590
0.006504 -3.221353 -0.532733 6.047646
-0.004874 -3.225514 -0.533260 6.047701
-0.016209 -3.221546 -0.532615 6.047757
-0.027490 -3.213589 -0.531338 6.047812
-0.039363 -3.213485 -0.531325 6.047871
-0.050160 -3.217303 -0.531945 6.047924
-0.061481 -3.217126 -0.531932 6.047979
-0.072400 -3.224820 -0.533183 6.048032
-0.083555 -3.216669 -0.531906 6.048088
-0.094763 -3.212427 -0.531261 6.048143
-0.106314 -3.219990 -0.532512 6.048199
-0.117781 -3.223565 -0.533131 6.048255
-0.128973 -3.219206 -0.532485 6.048311
-0.140299 -3.218754 -0.532472 6.048366
-0.151445 -3.214316 -0.531826 6.048422
-0.163333 -3.225622 -0.533709 6.048478
-0.174476 -3.221106 -0.533063 6.048533
-0.185589 -3.216551 -0.532417 6.048589
-0.196673 -3.211959 -0.531772 6.048645
-0.208221 -3.215213 -0.532390 6.048700
-0.219795 -3.218426 -0.533008 6.048756
-0.231670 -3.225537 -0.534258 6.048811
-0.242729 -3.220788 -0.533612 6.048867
-0.253192 -3.216044 -0.532966 6.048920
-0.264508 -3.215159 -0.532952 6.048975
-0.276715 -3.218123 -0.533569 6.049034
-0.288382 -3.221090 -0.534187 6.049089
-0.299922 -3.216097 -0.533540 6.049148
-0.310672 -3.215102 -0.533526 6.049201
-0.321033 -3.210140 -0.532881 6.049253
-0.333124 -3.216877 -0.534130 6.049309
-0.344442 -3.215713 -0.534115 6.049365
-0.356180 -3.218436 -0.534732 6.049420
-0.366625 -3.209340 -0.533454 6.049476
-0.377916 -3.208059 -0.533439 6.049532
-0.388638 -3.206805 -0.533425 6.049585
-0.400880 -3.213288 -0.534674 6.049640
-0.413243 -3.215735 -0.535290 6.049699
-0.423541 -3.206457 -0.534011 6.049755
-0.434258 -3.205052 -0.533997 6.049807
-0.446068 -3.207448 -0.534613 6.049863
-0.457900 -3.209801 -0.535230 6.049919
-0.470316 -3.216021 -0.536478 6.049974
-0.479328 -3.198746 -0.533936 6.050030
-0.491170 -3.200978 -0.534552 6.050086
-0.503898 -3.207529 -0.535605 6.050141
-0.515797 -3.209670 -0.536220 6.050197
-0.527087 -3.207868 -0.536204 6.050252
-0.537726 -3.202129 -0.535556 6.050308
-0.549083 -3.204240 -0.536172 6.050361
-0.560460 -3.206311 -0.536787 6.050414
-0.571174 -3.204452 -0.536772 6.050467
-0.584269 -3.206142 -0.537385 6.050528
-0.595546 -3.204101 -0.537368 6.050583
-0.606815 -3.202021 -0.537351 6.050639
-0.617515 -3.200008 -0.537335 6.050692
-0.630272 -3.205606 -0.538581 6.050747
-0.642493 -3.205230 -0.538879 6.050806
-0.652209 -3.195242 -0.537599 6.050862
-0.666845 -3.212427 -0.540739 6.050915
-0.681364 -3.225565 -0.543247 6.050970
-0.691226 -3.213404 -0.541650 6.051029
-0.702528 -3.210990 -0.541633 6.051084
-0.712128 -3.200820 -0.540353 6.051140
-0.725105 -3.206043 -0.541598 6.051196
-0.735817 -3.203637 -0.541581 6.051249
-0.748292 -3.208895 -0.542827 6.051301
-0.760477 -3.210128 -0.543440 6.051357
-0.770854 -3.203628 -0.542791 6.051413
-0.780832 -3.193121 -0.541510 6.051471
-0.794881 -3.201903 -0.543386 6.051527
-0.806531 -3.203100 -0.544000 6.051579
-0.817796 -3.200283 -0.543982 6.051635
-0.829614 -3.197283 -0.543963 6.051693
-0.841852 -3.198208 -0.544576 6.051749
-0.855676 -3.202758 -0.545818 6.051807
-0.866833 -3.203886 -0.546433 6.051857
-0.877067 -3.197047 -0.545783 6.051913
-0.888310 -3.193984 -0.545765 6.051969
-0.900105 -3.190725 -0.545746 6.052027
-0.912399 -3.191382 -0.546358 6.052083
-0.925233 -3.195952 -0.547602 6.052136
-0.938107 -3.200471 -0.548846 6.052189
-0.948250 -3.193405 -0.548196 6.052244
-0.959481 -3.190093 -0.548177 6.052300
-0.973537 -3.194139 -0.549419 6.052359
-0.982466 -3.183182 -0.548138 6.052414
-0.997759 -3.195021 -0.550643 6.052467
-1.005461 -3.180226 -0.548732 6.052523
-1.020778 -3.187836 -0.550604 6.052581
-1.034397 -3.191795 -0.551846 6.052637
-1.046374 -3.192278 -0.552358 6.052690
-1.055139 -3.181117 -0.551077 6.052745
-1.066325 -3.177432 -0.551058 6.052801
-1.081267 -3.184943 -0.552929 6.052856
-1.095640 -3.190518 -0.554486 6.052912
-1.105576 -3.182956 -0.553836 6.052968
-1.117416 -3.180960 -0.554131 6.053023
-1.128601 -3.177058 -0.554111 6.053079
-1.145059 -3.188006 -0.556613 6.053134
-1.156375 -3.186068 -0.556909 6.053187
-1.168812 -3.183683 -0.557203 6.053246
-1.180006 -3.179601 -0.557182 6.053301
-1.187195 -3.166429 -0.555587 6.053354
-1.201101 -3.169681 -0.556828 6.053410
-1.216442 -3.176569 -0.558698 6.053466
-1.228317 -3.174166 -0.558993 6.053521
-1.238766 -3.168035 -0.558657 6.053577
-1.252779 -3.171068 -0.559897 6.053633
-1.266104 -3.172204 -0.560821 6.053688
-1.278721 -3.171453 -0.561431 6.053744
-1.295775 -3.181643 -0.563930 6.053800
-1.303985 -3.169801 -0.562649 6.053855
-1.310625 -3.154287 -0.560738 6.053911
-1.327015 -3.162480 -0.562922 6.053967
-1.339868 -3.163544 -0.563847 6.054019
-1.352743 -3.164558 -0.564772 6.054072
-1.366196 -3.165283 -0.565696 6.054128
-1.374198 -3.153258 -0.564414 6.054183
-1.385839 -3.148219 -0.564392 6.054242
-1.404855 -3.161461 -0.567520 6.054297
-1.414368 -3.152945 -0.566869 6.054353
-1.427069 -3.151611 -0.567477 6.054409
-1.438149 -3.146629 -0.567455 6.054464
-1.452758 -3.150844 -0.569009 6.054517
-1.465216 -3.147311 -0.569301 6.054576
-1.481276 -3.152941 -0.571169 6.054631
-1.492362 -3.147769 -0.571147 6.054687
-1.505118 -3.146129 -0.571754 6.054743
-1.515628 -3.141137 -0.571733 6.054796
-1.529547 -3.143229 -0.572972 6.054848
-1.546329 -3.148279 -0.574837 6.054907
-1.557950 -3.142609 -0.574814 6.054965
-1.564944 -3.130361 -0.573534 6.055018
-1.582453 -3.139311 -0.576031 6.055071
-1.594041 -3.133508 -0.576007 6.055130
-1.611300 -3.138552 -0.577525 6.055188
-1.623583 -3.136724 -0.578132 6.055241
-1.630982 -3.124035 -0.576851 6.055296
-1.649266 -3.132353 -0.579345 6.055352
-1.663952 -3.133588 -0.580580 6.055408
-1.676817 -3.131268 -0.581186 6.055463
-1.689686 -3.128897 -0.581792 6.055519
-1.696935 -3.116043 -0.580510 6.055574
-1.719208 -3.130942 -0.584262 6.055630
-1.728714 -3.123508 -0.583925 6.055683
-1.745423 -3.127846 -0.585789 6.055738
-1.756829 -3.123783 -0.586081 6.055791
-1.766423 -3.113897 -0.585427 6.055850
-1.781261 -3.114605 -0.586662 6.055905
-1.795146 -3.113532 -0.587581 6.055961
-1.810030 -3.114111 -0.588815 6.056017
-1.823949 -3.112917 -0.589735 6.056072
-1.834345 -3.106869 -0.589712 6.056125
-1.850278 -3.108973 -0.591260 6.056181
-1.866249 -3.111004 -0.592808 6.056237
-1.881242 -3.111267 -0.594042 6.056292
-1.891631 -3.105028 -0.594018 6.056345
-1.902545 -3.098423 -0.593994 6.056401
-1.914467 -3.093465 -0.594284 6.056457
-1.931567 -3.096864 -0.596146 6.056512
-1.947171 -3.096490 -0.597377 6.056571
-1.961205 -3.094710 -0.598296 6.056626
-1.972593 -3.089876 -0.598586 6.056679
-1.984515 -3.084655 -0.598876 6.056735
-1.998558 -3.082713 -0.599794 6.056790
-2.017976 -3.089003 -0.602283 6.056846
-2.033147 -3.088576 -0.603516 6.056901
-2.037497 -3.071573 -0.601605 6.056957
-2.051563 -3.069401 -0.602522 6.057013
-2.068926 -3.072099 -0.604383 6.057068
-2.089638 -3.079630 -0.607185 6.057124
-2.100462 -3.072336 -0.607160 6.057180
-2.112946 -3.068634 -0.607764 6.057232
-2.121495 -3.058002 -0.607110 6.057288
-2.112602 -3.023353 -0.601745 6.057341
-1.847643 -2.620605 -0.525061 6.057397
-1.853459 -2.609308 -0.524096 6.057452
-1.859221 -2.598002 -0.523132 6.057508
-2.113686 -2.935725 -0.590334 6.057564
-2.209254 -3.047077 -0.613554 6.057619
-2.224594 -3.045766 -0.614784 6.057675
-2.244730 -3.050847 -0.617144 6.057731
-2.255453 -3.043010 -0.617118 6.057786
-2.270845 -3.041489 -0.618348 6.057842
-2.286253 -3.039898 -0.619578 6.057898
-2.306420 -3.044556 -0.622063 6.057953
-2.321883 -3.042808 -0.623293 6.058009
-2.330184 -3.031559 -0.622638 6.058064
-2.343910 -3.028534 -0.623555 6.058117
-2.358175 -3.025042 -0.624470 6.058173
-2.377294 -3.027724 -0.626641 6.058228
-2.391587 -3.024090 -0.627556 6.058284
-2.382642 -2.990929 -0.622506 6.058340
-2.389468 -2.977972 -0.621537 6.058395
-2.414744 -2.988137 -0.625277 6.058451
-2.460487 -3.022337 -0.634038 6.058509
-2.471822 -3.015712 -0.634326 6.058562
-2.477420 -3.000966 -0.633043 6.058618
-2.496027 -3.001032 -0.634897 6.058676
-2.521708 -3.010560 -0.638636 6.058732
-2.534822 -3.004789 -0.639236 6.058788
-2.555555 -3.008030 -0.641718 6.058844
-2.555909 -2.987055 -0.639180 6.058899
-2.397140 -2.779815 -0.597735 6.058955
-2.159266 -2.484224 -0.537469 6.059008
-2.179204 -2.490511 -0.540270 6.059061
-2.622622 -2.981838 -0.645346 6.059116
-2.634403 -2.974168 -0.645632 6.059172
-2.619215 -2.934910 -0.639328 6.059230
-2.528409 -2.812158 -0.615146 6.059286
-2.616892 -2.892040 -0.633941 6.059339
-2.709099 -2.973827 -0.653361 6.059394
-2.720878 -2.965832 -0.653646 6.059450
-2.735301 -2.960706 -0.654558 6.059505
-2.759091 -2.965683 -0.657665 6.059561
-2.778918 -2.966187 -0.659832 6.059617
-2.790169 -2.958415 -0.660118 6.059669
-2.805980 -2.954431 -0.661343 6.059725
-2.821276 -2.950863 -0.662570 6.059778
-2.843591 -2.951460 -0.665046 6.059839
-2.867129 -2.956276 -0.668154 6.059892
-2.884385 -2.953365 -0.669692 6.059948
-2.890627 -2.939052 -0.668722 6.060004
-2.912021 -2.940242 -0.671200 6.060059
-2.933459 -2.941319 -0.673678 6.060115
-2.943953 -2.931345 -0.673355 6.060171
-2.968234 -2.935022 -0.676460 6.060226
-2.978545 -2.924660 -0.676431 6.060282
-3.002898 -2.928119 -0.679535 6.060338
-3.030138 -2.934204 -0.683266 6.060393
-3.046116 -2.929130 -0.684490 6.060449
-3.053563 -2.915755 -0.683833 6.060504
-3.066661 -2.907827 -0.684430 6.060560
-3.091195 -2.910730 -0.687534 6.060616
-3.115786 -2.913498 -0.690637 6.060671
-3.137551 -2.913427 -0.693113 6.060727
-3.158842 -2.913792 -0.695591 6.060780
-3.168568 -2.903317 -0.695562 6.060833
-3.187497 -2.900273 -0.697411 6.060888
-3.203525 -2.894470 -0.698633 6.060944
-3.228335 -2.896548 -0.701735 6.060999
-3.190041 -2.841692 -0.691368 6.061055
-3.170557 -2.804244 -0.685074 6.061111
-3.261699 -2.865256 -0.702269 6.061166
-3.286087 -2.867497 -0.705372 6.061219
-3.019604 -2.614144 -0.647092 6.061275
-2.932297 -2.518903 -0.626707 6.061333
-3.236383 -2.762190 -0.688366 6.061392
-3.380662 -2.867068 -0.716519 6.061445
-3.399261 -2.863536 -0.718367 6.061498
-3.427938 -2.866365 -0.722091 6.061556
-3.444566 -2.858875 -0.723310 6.061615
-3.457145 -2.849980 -0.723906 6.061667
-3.472748 -2.843551 -0.725128 6.061720
-3.498509 -2.843349 -0.728225 6.061779
-3.526876 -2.846108 -0.731949 6.061834
-3.542518 -2.839384 -0.733171 6.061887
-3.555573 -2.829492 -0.733764 6.061943
-3.580957 -2.829399 -0.736862 6.061998
-3.606382 -2.829163 -0.739959 6.062054
-3.658250 -2.849537 -0.748376 6.062109
-0.924522 -0.695170 -0.196941 6.062165
-0.919094 -0.686064 -0.195369 6.062218
-0.913738 -0.676843 -0.193796 6.062274
-0.930303 -0.684459 -0.196604 6.062329
-0.934342 -0.682417 -0.196908 6.062385
-0.924177 -0.669660 -0.194397 6.062440
-0.928173 -0.667628 -0.194702 6.062496
-0.921062 -0.657335 -0.192816 6.062552
-0.917072 -0.649444 -0.191557 6.062608
-0.928961 -0.653416 -0.193338 6.062663
-0.928121 -0.647863 -0.192704 6.062719
-0.920843 -0.637704 -0.190819 6.062775
-0.919931 -0.632203 -0.190186 6.062830
-0.925435 -0.631291 -0.190803 6.062886
-0.930943 -0.630348 -0.191421 6.062942
-0.929869 -0.625006 -0.190788 6.062994
-0.925637 -0.617263 -0.189529 6.063050
-0.924725 -0.611640 -0.188895 6.063108
-0.926936 -0.608424 -0.188888 6.063164
-0.935562 -0.609802 -0.190131 6.063217
-0.931214 -0.602130 -0.188872 6.063272
-0.923541 -0.592299 -0.186988 6.063328
-0.925684 -0.589087 -0.186981 6.063384
-0.931115 -0.588041 -0.187598 6.063439
-0.939856 -0.589128 -0.188841 6.063495
-0.935360 -0.581557 -0.187583 6.063550
-0.924180 -0.569745 -0.185074 6.063606
-0.926245 -0.566530 -0.185066 6.063662
-0.934970 -0.567542 -0.186309 6.063717
-0.940370 -0.566395 -0.186926 6.063773
-0.939072 -0.561031 -0.186294 6.063829
-0.930931 -0.551682 -0.184411 6.063882
-0.929468 -0.546536 -0.183779 6.063935
-0.931451 -0.543303 -0.183771 6.063990
-0.936802 -0.542111 -0.184389 6.064046
-0.938868 -0.538690 -0.184381 6.064104
-0.934037 -0.531378 -0.183123 6.064160
-0.942671 -0.532316 -0.184366 6.064213
-0.937790 -0.525038 -0.183108 6.064269
-0.944915 -0.524594 -0.184038 6.064327
-0.981037 -0.541064 -0.190278 6.064383
-0.983001 -0.537651 -0.190270 6.064438
-0.996976 -0.541063 -0.192449 6.064494
-1.023034 -0.551172 -0.196814 6.064549
-1.042277 -0.557251 -0.199929 6.064605
-1.061574 -0.563203 -0.203044 6.064661
-1.070539 -0.563316 -0.204285 6.064716
-1.096758 -0.573022 -0.208649 6.064769
-1.116103 -0.578799 -0.211763 6.064822
-1.135710 -0.584059 -0.214877 6.064880
-1.155370 -0.589184 -0.217990 6.064939
-1.167986 -0.590691 -0.219854 6.064994
-1.187628 -0.595779 -0.222967 6.065050
-1.212534 -0.603875 -0.226782 6.065106
-1.242716 -0.614317 -0.231769 6.065159
-1.266053 -0.620755 -0.235506 6.065214
-1.285924 -0.625257 -0.238618 6.065270
-1.309259 -0.631625 -0.242355 6.065323
-1.330997 -0.636734 -0.245780 6.065379
-1.370508 -0.650426 -0.252325 6.065434
-1.401255 -0.659518 -0.257309 6.065490
-1.440851 -0.672956 -0.263854 6.065543
-1.468207 -0.679900 -0.268213 6.065598
-1.510027 -0.693185 -0.275068 6.065657
-1.555411 -0.708124 -0.282547 6.065712
-1.607947 -0.726379 -0.291274 6.065765
-1.642825 -0.735707 -0.296879 6.065821
-1.676125 -0.743687 -0.302171 6.065879
-1.698578 -0.746830 -0.305592 6.065935
-1.708327 -0.744451 -0.306828 6.065988
-1.712799 -0.739303 -0.307128 6.066043
-1.711836 -0.731739 -0.306492 6.066099
-1.714460 -0.725774 -0.306479 6.066154
-1.713437 -0.718230 -0.305843 6.066210
-1.723275 -0.715376 -0.307079 6.066266
-1.718570 -0.706281 -0.305819 6.066321
-1.717463 -0.698760 -0.305183 6.066377
-1.716325 -0.691256 -0.304547 6.066433
-1.722459 -0.686783 -0.305159 6.066489
-1.724926 -0.680782 -0.305146 6.066544
-1.727372 -0.674773 -0.305134 6.066600
-1.722341 -0.666116 -0.303875 6.066653
-1.724735 -0.660115 -0.303863 6.066708
-1.730787 -0.655550 -0.304475 6.066764
-1.733145 -0.649520 -0.304463 6.066820
-1.728106 -0.640644 -0.303204 6.066875
-1.726719 -0.633218 -0.302568 6.066931
-1.732696 -0.628595 -0.303180 6.066987
-1.734960 -0.622558 -0.303168 6.067042
-1.737203 -0.616513 -0.303156 6.067098
-1.739424 -0.610461 -0.303144 6.067153
-1.730474 -0.600379 -0.301262 6.067209
-1.736361 -0.595678 -0.301873 6.067265
-1.738510 -0.589628 -0.301862 6.067320
-1.744367 -0.584874 -0.302473 6.067376
-1.746373 -0.579100 -0.302462 6.067429
-1.737247 -0.569187 -0.300580 6.067484
-1.739303 -0.563134 -0.300568 6.067540
-1.745086 -0.558326 -0.301180 6.067596
-1.747003 -0.552550 -0.301169 6.067648
-1.745220 -0.545400 -0.300444 6.067704
-1.743333 -0.538412 -0.299810 6.067757
-1.745475 -0.531731 -0.299797 6.067818
-1.751169 -0.526834 -0.300409 6.067874
-1.758737 -0.522491 -0.301333 6.067930
-1.754869 -0.514932 -0.300387 6.067983
-1.750970 -0.507405 -0.299442 6.068035
-1.752901 -0.500999 -0.299430 6.068094
-1.752914 -0.494028 -0.299106 6.068152
-1.765997 -0.491545 -0.300965 6.068205
-1.760100 -0.483514 -0.299708 6.068258
-1.756241 -0.475456 -0.298762 6.068316
-1.758056 -0.469031 -0.298750 6.068375
-1.765474 -0.464486 -0.299673 6.068430
-1.763352 -0.457296 -0.299039 6.068486
-1.766841 -0.451974 -0.299340 6.068539
-1.764668 -0.444806 -0.298706 6.068594
-1.766209 -0.438966 -0.298695 6.068647
-1.767810 -0.432813 -0.298684 6.068703
-1.771382 -0.426833 -0.298984 6.068761
-1.774857 -0.421143 -0.299284 6.068817
-1.764886 -0.412121 -0.297405 6.068873
-1.768313 -0.406439 -0.297705 6.068928
-1.775491 -0.401968 -0.298629 6.068981
-1.771193 -0.394423 -0.297684 6.069037
-1.778340 -0.389902 -0.298608 6.069090
-1.766358 -0.380318 -0.296417 6.069148
-1.773537 -0.375465 -0.297340 6.069204
-1.778774 -0.370140 -0.297952 6.069260
-1.783927 -0.365095 -0.298564 6.069312
-1.783338 -0.358467 -0.298242 6.069368
-1.776925 -0.350628 -0.296986 6.069424
-1.780152 -0.344839 -0.297286 6.069479
-1.779424 -0.338555 -0.296965 6.069532
-1.790362 -0.334290 -0.298510 6.069588
-1.781964 -0.325843 -0.296943 6.069646
-1.775409 -0.318145 -0.295687 6.069702
-1.786295 -0.313791 -0.297233 6.069757
-1.791344 -0.308288 -0.297844 6.069813
-1.796320 -0.303066 -0.298456 6.069866
-1.793555 -0.296117 -0.297823 6.069921
-1.782980 -0.287834 -0.295946 6.069977
-1.784053 -0.281623 -0.295935 6.070033
-1.796795 -0.277364 -0.297791 6.070088
-1.791983 -0.270149 -0.296847 6.070144
-1.794945 -0.264219 -0.297148 6.070200
-1.786176 -0.256441 -0.295582 6.070255
-1.792998 -0.251115 -0.296505 6.070311
-1.791891 -0.245005 -0.296015 6.070367
-1.802588 -0.240187 -0.297561 6.070422
-1.799536 -0.233666 -0.296929 6.070475
-1.796460 -0.227168 -0.296298 6.070528
-1.795362 -0.220645 -0.295977 6.070584
-1.802074 -0.215166 -0.296900 6.070639
-1.806811 -0.209392 -0.297513 6.070695
-1.809569 -0.203343 -0.297814 6.070751
-1.800538 -0.195851 -0.296249 6.070807
-1.803287 -0.189497 -0.296550 6.070865
-1.805978 -0.183439 -0.296851 6.070920
-1.814504 -0.178331 -0.298086 6.070973
-1.805370 -0.170961 -0.296521 6.071029
-1.808031 -0.164561 -0.296822 6.071087
-1.804740 -0.157871 -0.296190 6.071143
-1.813193 -0.152658 -0.297425 6.071196
-1.817697 -0.147024 -0.298038 6.071249
-1.808438 -0.139813 -0.296473 6.071304
-1.812929 -0.133853 -0.297086 6.071360
-1.815431 -0.127700 -0.297387 6.071415
-1.821852 -0.121844 -0.298310 6.071471
-1.824313 -0.115647 -0.298612 6.071527
-1.820842 -0.109010 -0.297980 6.071582
-1.811455 -0.101678 -0.296416 6.071641
-1.813848 -0.095497 -0.296717 6.071697
-1.822154 -0.089346 -0.297951 6.071755
-1.824468 -0.083748 -0.298253 6.071805
-1.826799 -0.077501 -0.298555 6.071861
-1.817270 -0.070636 -0.296991 6.071916
-1.823488 -0.064905 -0.297915 6.071969
-1.827728 -0.058729 -0.298527 6.072025
-1.833922 -0.052604 -0.299450 6.072081
-1.830223 -0.046070 -0.298819 6.072136
-1.824536 -0.039179 -0.297877 6.072195
-1.826714 -0.032884 -0.298179 6.072250
-1.830837 -0.026946 -0.298791 6.072303
-1.830997 -0.020569 -0.298782 6.072359
-1.833116 -0.013912 -0.299083 6.072417
-1.833231 -0.007528 -0.299074 6.072473
-1.833319 -0.001463 -0.299065 6.072526
-1.839317 0.004867 -0.299988 6.072581
-1.839366 0.011273 -0.299979 6.072637
-1.839393 0.017679 -0.299970 6.072692
-1.831494 0.024074 -0.298718 6.072748
-1.835428 0.030471 -0.299330 6.072804
-1.839307 0.036448 -0.299907 6.072856
-1.847148 0.042945 -0.301142 6.072912
-1.847063 0.049378 -0.301133 6.072968
-1.839055 0.055664 -0.299881 6.073024
-1.842877 0.062156 -0.300494 6.073079
-1.848650 0.068725 -0.301417 6.073135
-1.850451 0.075220 -0.301719 6.073191
-1.850253 0.081664 -0.301710 6.073246
-1.838187 0.087681 -0.299837 6.073302
-1.845843 0.094394 -0.301071 6.073358
-1.845579 0.100822 -0.301063 6.073413
-1.853187 0.107616 -0.302297 6.073469
-1.848946 0.113550 -0.301667 6.073522
-1.848633 0.119667 -0.301659 6.073575
-1.848262 0.126426 -0.301650 6.073633
-1.855755 0.133662 -0.302884 6.073691
-1.855354 0.140124 -0.302875 6.073747
-1.854930 0.146585 -0.302867 6.073802
-1.850565 0.152442 -0.302237 6.073855
-1.854063 0.158857 -0.302850 6.073908
-1.857514 0.165619 -0.303463 6.073964
-1.864878 0.172727 -0.304697 6.074019
-1.864340 0.179221 -0.304688 6.074075
-1.851972 0.184671 -0.302817 6.074131
-1.859292 0.191518 -0.304051 6.074183
-1.858689 0.197992 -0.304043 6.074239
-1.865896 0.205565 -0.305276 6.074298
-1.865210 0.212387 -0.305267 6.074356
-1.852712 0.217955 -0.303395 6.074415
-1.859908 0.224944 -0.304630 6.074468
-1.867077 0.231983 -0.305864 6.074520
-1.866371 0.238160 -0.305856 6.074573
-1.869528 0.245129 -0.306469 6.074629
-1.864816 0.251154 -0.305839 6.074685
-1.863963 0.257972 -0.305831 6.074743
-1.863128 0.264462 -0.305823 6.074799
-1.868189 0.271412 -0.306746 6.074852
-1.871266 0.278131 -0.307359 6.074904
-1.866448 0.284094 -0.306731 6.074960
-1.865521 0.290593 -0.306722 6.075016
-1.872342 0.298572 -0.307956 6.075074
-1.886992 0.307464 -0.310431 6.075130
-1.891892 0.314615 -0.311354 6.075182
-1.879027 0.318875 -0.309401 6.075238
-1.877977 0.325417 -0.309393 6.075294
-1.886650 0.333574 -0.310939 6.075349
-1.891393 0.341135 -0.311863 6.075405
-1.894159 0.348394 -0.312477 6.075460
-1.906626 0.357397 -0.314643 6.075516
-2.000716 0.381220 -0.329849 6.075572
-2.086890 0.404274 -0.343813 6.075628
-2.089425 0.412270 -0.344426 6.075683
-2.088048 0.419547 -0.344418 6.075739
-2.090595 0.427210 -0.345031 6.075792
-2.089166 0.434490 -0.345024 6.075847
-2.091585 0.442547 -0.345637 6.075903
-2.099704 0.452186 -0.347180 6.075962
-2.105923 0.461117 -0.348414 6.076017
-2.086984 0.464747 -0.345613 6.076073
-2.102803 0.475779 -0.348399 6.076128
-2.093567 0.481037 -0.347150 6.076181
-2.109303 0.492211 -0.349935 6.076237
-2.111500 0.500433 -0.350548 6.076293
-2.105965 0.506896 -0.349920 6.076348
-2.115798 0.516939 -0.351775 6.076404
-2.114056 0.524307 -0.351767 6.076459
-2.119969 0.533529 -0.353001 6.076515
-2.118169 0.540912 -0.352993 6.076571
-2.116435 0.547919 -0.352986 6.076623
-2.116500 0.555774 -0.353288 6.076679
-2.116536 0.563636 -0.353591 6.076735
-2.118454 0.572001 -0.354204 6.076790
-2.124258 0.581028 -0.355438 6.076843
-2.114658 0.586380 -0.354190 6.076899
-2.122207 0.596333 -0.355734 6.076955
-2.125902 0.605295 -0.356657 6.077010
-2.127658 0.613761 -0.357270 6.077066
-2.129380 0.622245 -0.357883 6.077122
-2.127164 0.630030 -0.357876 6.077180
-2.121232 0.636335 -0.357248 6.077236
-2.119182 0.643351 -0.357241 6.077289
-2.132146 0.655244 -0.359716 6.077344
-2.137375 0.665324 -0.360949 6.077403
-2.125667 0.669877 -0.359390 6.077458
-2.123391 0.677279 -0.359383 6.077514
-2.132401 0.688218 -0.361238 6.077569
-2.135829 0.697063 -0.362161 6.077622
-2.140983 0.706915 -0.363395 6.077678
-2.129247 0.710777 -0.361806 6.077731
-2.130582 0.719423 -0.362420 6.077786
-2.137630 0.729585 -0.363964 6.077839
-2.131399 0.735769 -0.363337 6.077895
-2.151213 0.751195 -0.367053 6.077953
-2.135574 0.754187 -0.364874 6.078009
-2.136605 0.763293 -0.365487 6.078067
-2.148912 0.775980 -0.367963 6.078123
-2.144536 0.782426 -0.367646 6.078176
-2.149438 0.792194 -0.368880 6.078229
-2.142884 0.798701 -0.368253 6.078287
-2.149430 0.809570 -0.369797 6.078343
-2.152082 0.819493 -0.370721 6.078401
-2.158813 0.829709 -0.372266 6.078451
-2.163510 0.839651 -0.373500 6.078504
-2.151416 0.843649 -0.371942 6.078560
-2.148387 0.851514 -0.371936 6.078619
-2.158355 0.864034 -0.374100 6.078674
-2.168262 0.876633 -0.376265 6.078730
-2.167099 0.884915 -0.376568 6.078785
-2.162391 0.891344 -0.376252 6.078838
-2.163000 0.900363 -0.376866 6.078894
-2.174380 0.914286 -0.379340 6.078952
-2.178548 0.924890 -0.380574 6.079008
-2.175539 0.932096 -0.380568 6.079061
-2.165070 0.936586 -0.379321 6.079116
-2.176395 0.950341 -0.381796 6.079172
-2.187649 0.964185 -0.384271 6.079227
-2.207889 0.982069 -0.388296 6.079283
-2.233455 1.002494 -0.393251 6.079339
-2.228383 1.009079 -0.392935 6.079391
-2.233936 1.020879 -0.394479 6.079447
-2.237634 1.031915 -0.395713 6.079503
-2.239484 1.042168 -0.396637 6.079559
-2.235907 1.049964 -0.396631 6.079614
-2.235886 1.059415 -0.397245 6.079670
-2.241191 1.071398 -0.398789 6.079726
-2.243054 1.081347 -0.399713 6.079778
-2.250036 1.094267 -0.401567 6.079834
-2.242718 1.100384 -0.400941 6.079890
-2.242301 1.110311 -0.401555 6.079948
-2.245581 1.121600 -0.402789 6.080004
-2.252544 1.134287 -0.404644 6.080057
-2.259251 1.147426 -0.406498 6.080112
-2.259034 1.156675 -0.407112 6.080165
-2.251169 1.162056 -0.406259 6.080221
-2.257520 1.175692 -0.408115 6.080279
-2.256781 1.185760 -0.408731 6.080338
-2.263417 1.198706 -0.410588 6.080390
-2.262996 1.208032 -0.411204 6.080443
-2.258629 1.216303 -0.411200 6.080502
-2.261411 1.227894 -0.412436 6.080557
-2.260662 1.237643 -0.413052 6.080613
-2.270286 1.253065 -0.415529 6.080668
-2.276365 1.266669 -0.417386 6.080724
-2.268544 1.272682 -0.416761 6.080780
-2.274514 1.286352 -0.418618 6.080836
-2.283861 1.302016 -0.421095 6.080891
-2.289915 1.315412 -0.422952 6.080944
-2.275314 1.317109 -0.421088 6.080997
-2.288129 1.334486 -0.424185 6.081050
-2.289903 1.347214 -0.425421 6.081111
-2.302313 1.365163 -0.428519 6.081167
-2.307817 1.379200 -0.430376 6.081223
-2.303061 1.387234 -0.430372 6.081278
-2.303361 1.398298 -0.431298 6.081334
-2.308687 1.412445 -0.433155 6.081389
-2.324068 1.432809 -0.436873 6.081445
-2.329478 1.446693 -0.438730 6.081498
-2.331210 1.458958 -0.439967 6.081553
-2.319467 1.462894 -0.438722 6.081609
-2.331152 1.481473 -0.441820 6.081665
-2.331049 1.492757 -0.442747 6.081720
-2.335893 1.507244 -0.444604 6.081776
-2.344251 1.523511 -0.447081 6.081829
-2.335673 1.529524 -0.446457 6.081884
-2.323772 1.533338 -0.445213 6.081940
-2.337598 1.566265 -0.449858 6.082054
-2.330545 1.573305 -0.449544 6.082110
-2.325384 1.581012 -0.449541 6.082163
-2.319923 1.589106 -0.449537 6.082218
-2.307906 1.592728 -0.448294 6.082274
-2.317058 1.610835 -0.451081 6.082330
-2.303373 1.613274 -0.449528 6.082385
-2.290255 1.614839 -0.447975 6.082435
-2.278209 1.618268 -0.446731 6.082491
-2.266168 1.621632 -0.445488 6.082547
-2.238043 1.613461 -0.441144 6.082602
-2.132973 1.549788 -0.421916 6.082658
-2.101912 1.538542 -0.416935 6.082714
-2.131727 1.571462 -0.423756 6.082769
-2.106919 1.565214 -0.420032 6.082828
-2.120574 1.586649 -0.423751 6.082883
-2.102694 1.584216 -0.421267 6.082936
-2.113301 1.603025 -0.424367 6.082989
-2.120375 1.619908 -0.426845 6.083045
-2.117923 1.629680 -0.427463 6.083100
-2.115147 1.639823 -0.428081 6.083158
-2.107918 1.645976 -0.427769 6.083214
-2.113146 1.661804 -0.429938 6.083270
-2.101184 1.664282 -0.428695 6.083325
-2.112783 1.684692 -0.432105 6.083378
-2.111601 1.695732 -0.433033 6.083434
-2.105740 1.703079 -0.433031 6.083490
-2.104469 1.714126 -0.433960 6.083545
-2.110815 1.731413 -0.436439 6.083601
-2.114006 1.746263 -0.438298 6.083657
-2.123220 1.766181 -0.441397 6.083712
-2.123503 1.778243 -0.442636 6.083765
-2.123420 1.790699 -0.443874 6.083821
-2.123277 1.803174 -0.445113 6.083877
-2.132117 1.823332 -0.448213 6.083932
-2.134830 1.838444 -0.450072 6.083988
-2.143458 1.858748 -0.453171 6.084044
-2.134040 1.863620 -0.452549 6.084099
-2.139511 1.881429 -0.455029 6.084155
-2.144882 1.899298 -0.457508 6.084210
-2.150156 1.917228 -0.459987 6.084266
-2.155330 1.935216 -0.462467 6.084321
-2.148969 1.942340 -0.462466 6.084374
-2.151049 1.957758 -0.464325 6.084430
-2.155972 1.975871 -0.466805 6.084486
-2.160795 1.994041 -0.469284 6.084541
-2.165518 2.012269 -0.471764 6.084597
-2.161449 2.022491 -0.472383 6.084652
-2.165997 2.040801 -0.474863 6.084708
-2.167566 2.056460 -0.476722 6.084764
-2.171920 2.074873 -0.479202 6.084819
-2.176172 2.093340 -0.481682 6.084875
-2.172136 2.103270 -0.482301 6.084928
-2.173739 2.118689 -0.484161 6.084981
-2.180928 2.139655 -0.487261 6.085034
-2.187254 2.161453 -0.490361 6.085092
-2.191016 2.180167 -0.492842 6.085148
-2.185997 2.190194 -0.493484 6.085204
-2.195161 2.214575 -0.497207 6.085259
-2.201400 2.236240 -0.500310 6.085315
-2.204350 2.255545 -0.502792 6.085373
-2.207583 2.274516 -0.505275 6.085429
-2.202847 2.284647 -0.505895 6.085482
-2.205902 2.303687 -0.508378 6.085537
-2.211984 2.325244 -0.511481 6.085590
-2.217542 2.347254 -0.514584 6.085646
-2.217545 2.363585 -0.516446 6.085701
-2.217463 2.379944 -0.518308 6.085757
-2.219985 2.399222 -0.520791 6.085813
-2.222399 2.418548 -0.523274 6.085868
-2.238073 2.452468 -0.528859 6.085924
-2.237557 2.469011 -0.530722 6.085979
-2.232078 2.479333 -0.531343 6.086032
-2.236695 2.501785 -0.534447 6.086088
-2.238550 2.521350 -0.536930 6.086144
-2.248163 2.549828 -0.541275 6.086199
-2.252379 2.572472 -0.544379 6.086255
-2.251261 2.589228 -0.546241 6.086311
-2.255237 2.611973 -0.549345 6.086366
-2.261662 2.637769 -0.553070 6.086422
-2.267935 2.663641 -0.556794 6.086478
-2.268933 2.683570 -0.559278 6.086533
-2.269820 2.703537 -0.561762 6.086589
-2.275673 2.729598 -0.565487 6.086645
-2.284378 2.758371 -0.569832 6.086698
-2.289915 2.784586 -0.573557 6.086753
-2.297805 2.813926 -0.577902 6.086809
-2.290535 2.824981 -0.578525 6.086864
-2.277002 2.828338 -0.577596 6.086920
-2.258520 2.825476 -0.575426 6.086976
-2.241320 2.824063 -0.573566 6.087031
-2.224157 2.822564 -0.571707 6.087087
-2.199702 2.811663 -0.567985 6.087142
-2.181431 2.808411 -0.565816 6.087198
-2.164420 2.806628 -0.563956 6.087254
-2.139012 2.793800 -0.559925 6.087309
-2.117801 2.785170 -0.556824 6.087362
-2.097386 2.778368 -0.554034 6.087418
-2.080611 2.776191 -0.552174 6.087473
-2.063875 2.773932 -0.550315 6.087529
-2.047183 2.771589 -0.548456 6.087585
-2.030529 2.769164 -0.546597 6.087641
-2.002115 2.750564 -0.541687 6.087696
-1.986079 2.747587 -0.539827 6.087749
-1.973078 2.749683 -0.538898 6.087805
-1.956635 2.746902 -0.537039 6.087860
-1.936326 2.739547 -0.534248 6.087919
-1.914293 2.728516 -0.530837 6.087975
-1.905300 2.734838 -0.530840 6.088027
-1.899671 2.745995 -0.531773 6.088080
-1.875079 2.731785 -0.527741 6.088139
-1.857312 2.727215 -0.525572 6.088197
-1.837855 2.718961 -0.522781 6.088253
-1.824003 2.718795 -0.521543 6.088308
-1.815043 2.724816 -0.521546 6.088361
-1.800121 2.722895 -0.519997 6.088417
-1.783531 2.717294 -0.517827 6.088470
-1.767609 2.713573 -0.515968 6.088525
-1.751266 2.710078 -0.514109 6.088583
-1.740794 2.714502 -0.513802 6.088639
-1.727119 2.713892 -0.512563 6.088695
-1.703937 2.698207 -0.508531 6.088750
-1.672924 2.668729 -0.502016 6.088803
-1.607098 2.584080 -0.485256 6.088859
-1.591887 2.579588 -0.483397 6.088915
-1.581907 2.583433 -0.483090 6.088970
-1.560588 2.568695 -0.479369 6.089026
-1.547006 2.565396 -0.477820 6.089079
-1.541166 2.575847 -0.478754 6.089135
-1.530209 2.577805 -0.478137 6.089190
-1.523283 2.586519 -0.478762 6.089246
-1.514315 2.591807 -0.478765 6.089302
-1.501798 2.589974 -0.477527 6.089355
-1.496773 2.602030 -0.478772 6.089410
-1.493196 2.617769 -0.480639 6.089468
-1.491932 2.636692 -0.483126 6.089524
-1.486160 2.646774 -0.484061 6.089577
-1.474085 2.646761 -0.483134 6.089633
-1.453901 2.633130 -0.479723 6.089691
-1.442865 2.634714 -0.479106 6.089746
-1.432291 2.636005 -0.478489 6.089799
-1.417505 2.630551 -0.476630 6.089855
-1.402773 2.625028 -0.474771 6.089911
-1.390885 2.624664 -0.473844 6.089966
-1.377169 2.620755 -0.472296 6.090022
-1.364416 2.618532 -0.471058 6.090077
-1.352148 2.616017 -0.469820 6.090130
-1.333767 2.602659 -0.466866 6.090186
-1.321146 2.600248 -0.465627 6.090242
-1.306776 2.594255 -0.463767 6.090297
-1.299552 2.602320 -0.464392 6.090353
-1.284367 2.594446 -0.462221 6.090409
-1.271876 2.591813 -0.460982 6.090464
-1.257682 2.585575 -0.459122 6.090520
-1.254746 2.602383 -0.461301 6.090576
-1.242302 2.599611 -0.460062 6.090631
-1.227343 2.591431 -0.457891 6.090687
-1.214144 2.586752 -0.456342 6.090743
-1.200155 2.580224 -0.454481 6.090798
-1.187058 2.575421 -0.452932 6.090854
-1.178127 2.579537 -0.452936 6.090909
-1.165913 2.576427 -0.451697 6.090965
-1.148054 2.560653 -0.448283 6.091021
-1.136760 2.559220 -0.447355 6.091076
-1.126733 2.559350 -0.446737 6.091129
-1.115923 2.557633 -0.445809 6.091182
-1.103909 2.554251 -0.444570 6.091238
-1.091150 2.549002 -0.443021 6.091293
-1.078002 2.543882 -0.441472 6.091352
-1.066114 2.540335 -0.440233 6.091407
-1.059270 2.547491 -0.440859 6.091460
-1.045593 2.538199 -0.438687 6.091513
-1.031550 2.529024 -0.436516 6.091569
-1.022783 2.532597 -0.436521 6.091624
-1.011058 2.528806 -0.435282 6.091680
-1.001854 2.532482 -0.435287 6.091739
-0.992790 2.533940 -0.434981 6.091791
-0.978270 2.522650 -0.432499 6.091847
-0.968105 2.522350 -0.431882 6.091903
-0.956544 2.518319 -0.430643 6.091959
-0.949210 2.525327 -0.431269 6.092014
-0.936309 2.517508 -0.429409 6.092070
-0.923475 2.509629 -0.427549 6.092125
-0.912063 2.505402 -0.426310 6.092181
-0.903813 2.508402 -0.426315 6.092234
-0.895119 2.511529 -0.426320 6.092289
-0.885095 2.510902 -0.425703 6.092345
-0.872476 2.502775 -0.423843 6.092401
-0.862509 2.502059 -0.423226 6.092456
-0.851279 2.497565 -0.421987 6.092512
-0.845155 2.507996 -0.423236 6.092567
-0.832703 2.499676 -0.421376 6.092623
-0.823232 2.498661 -0.420758 6.092676
-0.814498 2.501297 -0.420772 6.092731
-0.803831 2.496454 -0.419533 6.092784
-0.796381 2.502997 -0.420160 6.092840
-0.788300 2.507633 -0.420476 6.092896
-0.776081 2.499041 -0.418615 6.092951
-0.767420 2.501723 -0.418620 6.093007
-0.755875 2.494923 -0.417070 6.093063
-0.747228 2.497534 -0.417075 6.093118
-0.739694 2.503904 -0.417702 6.093174
-0.728119 2.494956 -0.415841 6.093227
-0.719473 2.497470 -0.415847 6.093283
-0.711900 2.503754 -0.416474 6.093338
-0.702687 2.504310 -0.416168 6.093394
-0.692950 2.502928 -0.415551 6.093450
-0.681666 2.495793 -0.414001 6.093505
-0.673531 2.500052 -0.414318 6.093561
-0.665375 2.504285 -0.414634 6.093616
-0.657264 2.510516 -0.415262 6.093675
-0.647574 2.508958 -0.414645 6.093730
-0.636381 2.499595 -0.412784 6.093783
-0.627720 2.501789 -0.412790 6.093839
-0.619482 2.503846 -0.412795 6.093892
-0.614086 2.519415 -0.414978 6.093947
-0.605354 2.521532 -0.414983 6.094003
-0.594339 2.514005 -0.413434 6.094059
-0.610751 2.625827 -0.431172 6.094117
-0.601648 2.627931 -0.431177 6.094173
-0.568154 2.645490 -0.432756 6.094390
-0.559390 2.649379 -0.433073 6.094445
-0.552216 2.660975 -0.434635 6.094501
-0.540554 2.653290 -0.433086 6.094560
-0.529803 2.647399 -0.431848 6.094615
-0.520703 2.647192 -0.431542 6.094668
-0.513025 2.656740 -0.432793 6.094724
-0.505287 2.666267 -0.434044 6.094779
-0.496043 2.668003 -0.434050 6.094835
-0.485019 2.659988 -0.432501 6.094891
-0.477189 2.669433 -0.433752 6.094946
-0.468398 2.670989 -0.433758 6.094999
-0.460270 2.676410 -0.434386 6.095052
-0.450336 2.674092 -0.433770 6.095108
-0.439780 2.667839 -0.432532 6.095163
-0.431288 2.676103 -0.433453 6.095222
-0.422621 2.681483 -0.434082 6.095277
-0.413785 2.682859 -0.434088 6.095330
-0.405068 2.688183 -0.434718 6.095386
-0.393160 2.671977 -0.431921 6.095441
-0.385295 2.683100 -0.433484 6.095497
-0.375906 2.680439 -0.432868 6.095550
-0.366610 2.681723 -0.432874 6.095605
-0.358297 2.686830 -0.433503 6.095658
-0.346485 2.672439 -0.431018 6.095717
-0.337709 2.677541 -0.431647 6.095772
-0.328902 2.682614 -0.432277 6.095828
-0.320531 2.691581 -0.433529 6.095884
-0.310969 2.690710 -0.433224 6.095940
-0.300324 2.679987 -0.431362 6.095995
-0.291666 2.686900 -0.432303 6.096051
-0.283580 2.699679 -0.434179 6.096107
-0.275211 2.710469 -0.435743 6.096162
-0.266002 2.713368 -0.436061 6.096218
-0.254373 2.690665 -0.432329 6.096273
-0.246758 2.705256 -0.434517 6.096326
-0.236174 2.692312 -0.432342 6.096382
-0.227824 2.704921 -0.434218 6.096437
-0.218918 2.711596 -0.435160 6.096493
-0.208456 2.698543 -0.432986 6.096549
-0.199676 2.707124 -0.434239 6.096604
-0.190012 2.703852 -0.433622 6.096660
-0.181417 2.716314 -0.435499 6.096715
-0.172244 2.720863 -0.436129 6.096771
-0.162807 2.721437 -0.436136 6.096827
-0.154061 2.725895 -0.436766 6.096880
-0.144815 2.730351 -0.437396 6.096935
-0.136204 2.738698 -0.438649 6.096988
-0.125312 2.729320 -0.437099 6.097049
-0.116319 2.729710 -0.437105 6.097102
-0.106776 2.728114 -0.436801 6.097158
-0.097386 2.730432 -0.437119 6.097214
-0.088039 2.734693 -0.437750 6.097269
-0.078500 2.732997 -0.437445 6.097325
-0.058556 2.686053 -0.429980 6.097436
-0.048423 2.638823 -0.422507 6.097492
-0.039371 2.613278 -0.418462 6.097545
-0.030658 2.603506 -0.416910 6.097598
-0.021209 2.607540 -0.417540 6.097656
-0.012044 2.603440 -0.416846 6.097712
-0.003469 2.599504 -0.416229 6.097764
0.005433 2.565904 -0.410937 6.097820
0.013925 2.506593 -0.401592 6.097876
0.022573 2.502567 -0.400975 6.097931
0.031625 2.498505 -0.400359 6.097990
0.040147 2.490467 -0.399119 6.098045
0.048101 2.478459 -0.397255 6.098098
0.056690 2.478264 -0.397261 6.098154
0.064685 2.472128 -0.396332 6.098207
0.073192 2.469901 -0.396027 6.098262
0.081595 2.477531 -0.397281 6.098315
0.090460 2.473256 -0.396664 6.098374
0.099194 2.476861 -0.397295 6.098429
0.107601 2.472542 -0.396678 6.098485
0.115740 2.472161 -0.396684 6.098538
0.124717 2.479622 -0.397938 6.098594
0.133958 2.483081 -0.398569 6.098652
0.142993 2.482561 -0.398576 6.098711
0.150674 2.474176 -0.397335 6.098763
0.159078 2.477595 -0.397965 6.098816
0.167938 2.480954 -0.398596 6.098872
0.177109 2.488223 -0.399850 6.098927
0.185861 2.483606 -0.399234 6.098986
0.193837 2.475054 -0.397993 6.099041
0.202314 2.478324 -0.398624 6.099094
0.211586 2.485464 -0.399878 6.099150
0.219769 2.484738 -0.399885 6.099203
0.228748 2.487878 -0.400515 6.099258
0.236604 2.479188 -0.399275 6.099314
0.245590 2.482267 -0.399906 6.099370
0.254192 2.481384 -0.399913 6.099425
0.263215 2.484398 -0.400544 6.099481
0.272698 2.491306 -0.401798 6.099536
0.279978 2.478552 -0.399934 6.099592
0.289496 2.485396 -0.401189 6.099648
0.297868 2.482398 -0.400884 6.099704
0.306963 2.485252 -0.401515 6.099759
0.315827 2.486114 -0.401834 6.099815
0.321157 2.463499 -0.398410 6.099868
0.327029 2.442777 -0.395298 6.099923
0.331795 2.418189 -0.391562 6.099976
0.337096 2.395493 -0.388138 6.100032
0.341792 2.366865 -0.383778 6.100090
0.344999 2.332436 -0.378482 6.100146
0.347670 2.296060 -0.372874 6.100202
0.354096 2.282533 -0.370772 6.100257
0.360116 2.269571 -0.368907 6.100313
0.366691 2.260492 -0.367665 6.100368
0.372881 2.249447 -0.366112 6.100424
0.382011 2.255908 -0.367367 6.100480
0.390114 2.258510 -0.367997 6.100533
0.400023 2.268792 -0.369876 6.100588
0.407881 2.267371 -0.369883 6.100644
0.413925 2.256212 -0.368330 6.100699
0.423581 2.264447 -0.369897 6.100755
0.432173 2.266823 -0.370528 6.100811
0.442313 2.276919 -0.372407 6.100866
0.450976 2.279225 -0.373038 6.100922
0.457288 2.269884 -0.371797 6.100978
0.192002 1.345765 0.149169 7.000017
0.197493 1.350952 0.149906 7.000072
0.203331 1.358077 0.150890 7.000128
0.207190 1.352958 0.150513 7.000181
0.210187 1.342417 0.149266 7.000237
0.215748 1.347528 0.150002 7.000292
0.221348 1.352616 0.150737 7.000348
0.226986 1.357680 0.151473 7.000403
0.230561 1.351001 0.150722 7.000459
0.234094 1.344312 0.149970 7.000515
0.242177 1.360984 0.152192 7.000573
0.245842 1.356256 0.151689 7.000626
0.252727 1.367062 0.153167 7.000681
0.256769 1.364251 0.152912 7.000734
0.260636 1.359437 0.152408 7.000790
0.264871 1.356555 0.152152 7.000846
0.270705 1.361433 0.152887 7.000901
0.274934 1.358519 0.152631 7.000957
0.279562 1.357533 0.152622 7.001013
0.284187 1.356530 0.152614 7.001068
0.288809 1.355511 0.152605 7.001124
0.294302 1.358348 0.153092 7.001180
0.301154 1.366964 0.154322 7.001235
0.304458 1.360088 0.153570 7.001291
0.306343 1.347413 0.152076 7.001347
0.311862 1.350175 0.152562 7.001402
0.318819 1.358698 0.153792 7.001458
0.325129 1.365321 0.154774 7.001511
0.328812 1.360310 0.154270 7.001566
0.330760 1.349580 0.153024 7.001619
0.334859 1.346477 0.152767 7.001675
0.340959 1.351039 0.153501 7.001730
0.347837 1.357432 0.154482 7.001789
0.352980 1.358106 0.154721 7.001844
0.354983 1.347277 0.153474 7.001900
0.359873 1.347988 0.153713 7.001953
0.367154 1.356256 0.154941 7.002008
0.370999 1.353105 0.154685 7.002061
0.377261 1.357503 0.155418 7.002117
0.379098 1.346636 0.154172 7.002173
0.385942 1.352896 0.155152 7.002228
0.391691 1.355324 0.155638 7.002284
0.397695 1.357657 0.156123 7.002343
0.402320 1.356242 0.156114 7.002398
0.403394 1.343443 0.154620 7.002454
0.410129 1.349651 0.155601 7.002507
0.415934 1.351973 0.156086 7.002562
0.421529 1.354346 0.156571 7.002615
0.426374 1.352772 0.156561 7.002674
0.428537 1.343533 0.155611 7.002729
0.433972 1.343815 0.155848 7.002788
0.440868 1.349870 0.156828 7.002841
0.447397 1.353937 0.157560 7.002896
0.452010 1.352348 0.157550 7.002952
0.455303 1.346998 0.157046 7.003007
0.460987 1.349204 0.157531 7.003060
0.465583 1.347569 0.157521 7.003116
0.472200 1.351515 0.158253 7.003171
0.477717 1.351619 0.158490 7.003230
0.478646 1.340704 0.157245 7.003283
0.485994 1.346442 0.158223 7.003338
0.491754 1.348518 0.158708 7.003391
0.499179 1.354191 0.159686 7.003447
0.504506 1.354274 0.159923 7.003503
0.505743 1.343151 0.158677 7.003561
0.514453 1.352529 0.160150 7.003614
0.519060 1.350706 0.160140 7.003670
0.524401 1.350709 0.160376 7.003725
0.529002 1.348852 0.160366 7.003781
0.533596 1.346979 0.160356 7.003837
0.535145 1.337755 0.159358 7.003892
0.545062 1.348677 0.161076 7.003948
0.548111 1.343091 0.160572 7.004004
0.549570 1.333849 0.159573 7.004059
0.547832 1.317321 0.157588 7.004115
0.551524 1.313562 0.157331 7.004170
0.554400 1.307975 0.156827 7.004226
0.558629 1.306112 0.156817 7.004279
0.558213 1.293265 0.155325 7.004334
0.551784 1.267870 0.152107 7.004387
0.555273 1.264111 0.151850 7.004443
0.559571 1.262146 0.151840 7.004498
0.559687 1.251164 0.150596 7.004554
0.561417 1.243791 0.149845 7.004610
0.558224 1.225555 0.147614 7.004668
0.558117 1.214623 0.146370 7.004724
0.567405 1.223380 0.147841 7.004780
0.567227 1.212446 0.146597 7.004835
0.566981 1.201527 0.145354 7.004891
0.571060 1.199522 0.145344 7.004947
0.575133 1.197503 0.145334 7.005002
0.584342 1.206212 0.146804 7.005055
0.589335 1.205917 0.147041 7.005111
0.594333 1.205601 0.147277 7.005166
0.594990 1.195873 0.146475 7.005222
0.600884 1.197292 0.146958 7.005278
0.606795 1.198684 0.147441 7.005333
0.614578 1.203558 0.148417 7.005389
0.618667 1.201387 0.148407 7.005445
0.617843 1.190571 0.147165 7.005497
0.628509 1.200602 0.148880 7.005553
0.632587 1.198382 0.148869 7.005609
0.642408 1.206576 0.150338 7.005664
0.644577 1.200839 0.149834 7.005720
0.645744 1.193370 0.149085 7.005775
0.650571 1.192932 0.149322 7.005828
0.659532 1.199259 0.150543 7.005884
0.662617 1.195210 0.150286 7.005939
0.672642 1.203178 0.151754 7.005995
0.672524 1.194066 0.150758 7.006048
0.675572 1.189982 0.150502 7.006104
0.684673 1.196135 0.151722 7.006159
0.690770 1.197127 0.152204 7.006215
0.696884 1.198091 0.152686 7.006271
0.698892 1.192240 0.152183 7.006326
0.702941 1.189774 0.152172 7.006382
0.713230 1.197432 0.153639 7.006438
0.720234 1.200101 0.154367 7.006491
0.723257 1.195879 0.154110 7.006546
0.724997 1.190099 0.153607 7.006599
0.731167 1.190893 0.154088 7.006655
0.741632 1.198344 0.155554 7.006711
0.745905 1.195599 0.155542 7.006769
0.754090 1.199757 0.156516 7.006822
0.749461 1.183818 0.154536 7.006877
0.762229 1.194427 0.156494 7.006933
0.765387 1.189954 0.156236 7.006991
0.775856 1.197284 0.157701 7.007044
0.780829 1.196332 0.157937 7.007097
0.780425 1.187017 0.156941 7.007153
0.786699 1.187541 0.157422 7.007208
0.790730 1.184770 0.157410 7.007264
0.801553 1.191760 0.158875 7.007319
0.807877 1.192187 0.159355 7.007375
0.808490 1.184478 0.158606 7.007431
0.813660 1.183247 0.158840 7.007486
0.819989 1.183609 0.159320 7.007542
0.826330 1.183939 0.159800 7.007598
0.835018 1.187450 0.160772 7.007653
0.836573 1.181255 0.160330 7.007706
0.841761 1.179907 0.160564 7.007762
0.851686 1.184909 0.161781 7.007818
0.856897 1.183500 0.162015 7.007873
0.865695 1.186822 0.162986 7.007929
0.866322 1.178881 0.162236 7.007987
0.874947 1.182291 0.163208 7.008040
